ply
format ascii 1.0
comment made by patoriko hoffmann
element vertex 1607
property double x
property double y
property double z
end_header
17.394197 15.904239 11.395753
11.654323 16.337376 17.762914
11.573603 16.343467 17.852455
11.492887 16.349558 17.941992
11.412175 16.355649 18.031525
11.331465 16.361739 18.121055
10.524561 16.422629 19.016143
17.438938 15.777970 11.098859
17.357809 15.784094 11.188861
17.276682 15.790219 11.278858
10.716927 16.285437 18.555927
10.393575 16.309848 18.914638
10.667058 16.166029 18.363424
10.586053 16.172147 18.453293
10.505051 16.178265 18.543157
10.424053 16.184382 18.633018
10.343058 16.190499 18.722875
10.181078 16.202733 18.902578
18.669829 15.437679 9.235664
18.588316 15.443837 9.326101
18.425302 15.456155 9.506963
18.343799 15.462313 9.597388
18.262301 15.468471 9.687809
18.180806 15.474628 9.778226
10.535819 16.052271 18.260197
9.967741 16.095194 18.890470
17.982474 15.365196 9.747941
10.404055 15.938057 18.156557
9.834858 15.981083 18.788108
18.110619 15.230580 9.354398
18.028797 15.236767 9.445188
17.946979 15.242955 9.535975
8.724413 15.563461 19.011049
8.642493 15.569664 19.101965
8.560576 15.575867 19.192878
8.587689 15.447137 18.907911
8.505606 15.453355 18.999013
8.423526 15.459573 19.090112
8.341450 15.465791 19.181207
8.203681 15.349041 19.078211
16.172721 16.843751 15.545147
16.095680 16.849552 15.634707
16.018647 16.855352 15.724257
15.941624 16.861151 15.813797
15.864609 16.866950 15.903326
15.787602 16.872748 15.992846
16.207712 16.722771 15.257338
16.130507 16.728591 15.347102
16.053311 16.734410 15.436857
15.976124 16.740228 15.526601
15.898945 16.746046 15.616335
15.821775 16.751863 15.706059
15.744613 16.757679 15.795773
15.667461 16.763495 15.885476
15.590317 16.769310 15.975170
15.513181 16.775124 16.064853
16.397617 16.589602 14.788346
15.469549 16.659639 15.867557
15.314994 16.671303 16.047284
16.278139 16.479279 14.678074
15.348300 16.549531 15.759515
15.193450 16.561230 15.939612
15.038634 16.572927 16.119669
15.769855 16.397887 15.019073
15.692215 16.403760 15.109385
15.614585 16.409632 15.199686
15.536963 16.415503 15.289977
15.459351 16.421374 15.380258
15.381747 16.427244 15.470529
15.304152 16.433113 15.560790
15.071419 16.450717 15.831510
18.454941 16.074256 11.644019
18.376833 16.080171 11.734890
15.337574 16.310327 15.270787
15.259821 16.316215 15.361245
15.182078 16.322103 15.451693
12.466600 16.527740 18.610899
12.389174 16.533603 18.700978
12.311756 16.539466 18.791047
18.495215 15.950165 11.344404
18.416939 15.956100 11.435485
18.338672 15.962034 11.526555
18.260414 15.967967 11.617616
18.182165 15.973899 11.708665
18.103925 15.979831 11.799705
18.025694 15.985762 11.890734
12.494012 16.405153 18.327354
12.416420 16.411036 18.417640
12.338836 16.416918 18.507915
12.261262 16.422799 18.598180
12.183696 16.428680 18.688435
12.106139 16.434560 18.778680
18.221934 15.849358 11.408617
18.143525 15.855310 11.499868
18.065125 15.861261 11.591108
17.986734 15.867211 11.682338
17.908352 15.873161 11.773558
12.288291 16.299750 18.314055
12.210559 16.305650 18.404517
12.132836 16.311550 18.494970
12.055121 16.317449 18.585412
11.977416 16.323347 18.675844
17.869069 15.754136 11.564497
17.790535 15.760104 11.655908
17.712010 15.766071 11.747308
11.381235 16.247171 19.116094
11.303442 16.253082 19.206642
11.225659 16.258993 19.297179
11.147884 16.264904 19.387705
11.070119 16.270814 19.478222
10.992362 16.276723 19.568728
11.328526 16.129239 18.922813
11.250576 16.135170 19.013559
11.172634 16.141100 19.104294
11.094701 16.147029 19.195020
11.016778 16.152958 19.285735
18.815980 15.436445 9.949184
18.737005 15.442461 10.041138
18.658039 15.448476 10.133081
18.579082 15.454490 10.225014
18.500134 15.460504 10.316936
11.197490 16.016767 18.819673
10.650974 16.058397 19.456002
18.461823 15.339806 10.103406
18.382721 15.345839 10.195522
11.065922 15.903840 18.716117
10.909429 15.915774 18.898357
10.831196 15.921741 18.989461
10.752972 15.927706 19.080555
10.674757 15.933671 19.171639
10.596551 15.939635 19.262712
10.518354 15.945599 19.353774
18.502625 15.212550 9.796649
18.423350 15.218603 9.888981
9.431089 15.532058 19.583202
9.352358 15.538091 19.674947
9.273636 15.544123 19.766681
9.194923 15.550154 19.858404
9.294676 15.417078 19.480232
9.215792 15.423130 19.572170
9.136917 15.429181 19.664097
9.058051 15.435232 19.756014
18.949811 14.549477 7.962462
8.841608 15.325908 19.745304
15.040247 16.927596 15.437880
14.960443 16.933601 15.526617
15.719948 16.756746 14.441645
15.639954 16.762768 14.530599
14.920171 16.816950 15.330999
14.760260 16.828988 15.508821
14.639405 16.717936 15.401874
14.559300 16.723968 15.490955
15.561780 16.527808 14.133757
15.481472 16.533859 14.223070
15.320869 16.545960 14.401684
15.240572 16.552010 14.490985
15.120162 16.439951 14.381587
15.039714 16.446015 14.471062
14.959270 16.452079 14.560533
14.878829 16.458142 14.650000
14.798392 16.464206 14.739463
14.717959 16.470269 14.828922
14.637530 16.476332 14.918376
17.984272 16.102332 10.951597
17.903529 16.108422 11.041406
17.822789 16.114511 11.131211
17.742054 16.120600 11.221012
14.596293 16.357840 14.719988
11.778036 16.570381 17.854687
11.617131 16.582516 18.033659
11.536685 16.588583 18.123138
17.868717 15.988841 10.834658
17.787816 15.994945 10.924648
17.706920 16.001049 11.014634
17.626027 16.007153 11.104615
17.545137 16.013256 11.194593
17.464252 16.019359 11.284566
11.731028 16.451937 17.661940
11.650414 16.458020 17.751611
11.569803 16.464102 17.841278
11.489197 16.470184 17.930941
11.408594 16.476265 18.020600
11.327995 16.482347 18.110255
17.428492 15.899373 11.077915
17.347449 15.905491 11.168070
17.266409 15.911608 11.258220
10.391890 16.430542 18.905607
10.665465 16.286952 18.354332
10.584575 16.293061 18.444323
10.503688 16.299170 18.534309
10.422805 16.305278 18.624290
10.341927 16.311386 18.714268
10.261051 16.317494 18.804241
10.180180 16.323602 18.894210
18.658954 15.559543 9.213088
18.170434 15.596454 9.756600
17.972739 15.487191 9.727072
10.403805 16.059355 18.148572
17.937712 15.365133 9.515554
8.728674 15.685432 19.006954
8.646882 15.691627 19.097984
8.592673 15.569315 18.904387
8.510719 15.575526 18.995601
8.428769 15.581735 19.086812
8.346823 15.587945 19.178018
18.586233 14.684747 7.525797
15.802074 16.870533 14.849230
15.722493 16.876521 14.937883
15.642916 16.882509 15.026531
15.563343 16.888496 15.115175
15.324646 16.906457 15.381082
15.245088 16.912443 15.469708
15.085984 16.924414 15.646949
15.922829 16.741996 14.474775
15.843084 16.748000 14.563617
15.763342 16.754003 14.652455
15.683604 16.760005 14.741288
14.886439 16.820016 15.629382
14.765970 16.709200 15.522785
14.686121 16.715213 15.611747
15.365224 16.543677 14.613314
15.285186 16.549709 14.702493
15.205153 16.555740 14.791668
15.125123 16.561770 14.880838
15.045097 16.567800 14.970004
14.965075 16.573830 15.059166
14.885057 16.579860 15.148323
15.245196 16.431855 14.504272
15.165004 16.437901 14.593629
15.084815 16.443947 14.682982
15.004631 16.449992 14.772331
14.924450 16.456037 14.861675
14.844274 16.462081 14.951015
14.764101 16.468126 15.040351
18.180849 16.089071 10.989130
18.100351 16.095142 11.078834
18.019856 16.101214 11.168535
17.939365 16.107285 11.258231
17.858878 16.113356 11.347922
15.044347 16.325653 14.484336
14.964003 16.331713 14.573868
11.913878 16.561779 17.972817
11.673323 16.579924 18.240884
11.593145 16.585972 18.330231
17.985151 15.981887 10.962265
17.904500 15.987974 11.052146
17.823853 15.994060 11.142022
17.743210 16.000146 11.231894
17.662570 16.006231 11.321761
17.581935 16.012317 11.411624
11.867025 16.443598 17.780546
11.786676 16.449662 17.870089
11.706332 16.455725 17.959628
11.625991 16.461788 18.049163
11.545655 16.467851 18.138693
11.465322 16.473913 18.228219
10.742508 16.528461 19.033752
17.546286 15.892587 11.205454
17.465494 15.898687 11.295498
17.384706 15.904787 11.385538
10.804991 16.278918 18.472344
10.724370 16.285008 18.562203
10.643754 16.291098 18.652058
10.563141 16.297188 18.741908
10.482532 16.303277 18.831754
10.401927 16.309366 18.921596
18.610607 15.565817 9.524301
18.529434 15.571952 9.614782
18.448265 15.578087 9.705258
18.367101 15.584221 9.795730
18.285940 15.590355 9.886197
10.109496 16.208325 19.000207
18.251488 15.469017 9.675643
18.170168 15.475166 9.766293
18.088853 15.481315 9.856939
10.544203 16.051821 18.267286
10.220486 16.076300 18.628148
10.139567 16.082419 18.718352
10.058652 16.088537 18.808552
18.379876 15.334857 9.282544
18.298384 15.341023 9.373392
18.216897 15.347188 9.464236
18.135413 15.353352 9.555076
18.053934 15.359517 9.645911
8.874715 15.678661 19.125212
8.793201 15.684838 19.216105
8.739176 15.562805 19.023002
8.657501 15.568997 19.114080
8.575830 15.575188 19.205153
8.494164 15.581379 19.296222
15.731989 16.994781 14.938523
15.334179 17.024699 15.381733
15.254628 17.030682 15.470363
15.932311 16.860505 14.475401
15.852572 16.866505 14.564246
15.772838 16.872505 14.653086
15.693107 16.878504 14.741922
15.613380 16.884503 14.830753
15.453939 16.896500 15.008403
15.374223 16.902498 15.097221
15.294512 16.908496 15.186035
15.214805 16.914493 15.274845
15.135102 16.920490 15.363650
15.055403 16.926487 15.452451
14.975707 16.932484 15.541248
14.896016 16.938480 15.630040
15.893747 16.743722 14.277475
14.775560 16.827900 15.523440
14.695719 16.833910 15.612404
15.694924 16.638532 14.257172
15.614878 16.644561 14.346372
15.534836 16.650590 14.435567
15.454797 16.656618 14.524757
15.374763 16.662646 14.613943
14.814633 16.704834 15.238123
14.734630 16.710859 15.327274
14.654631 16.716885 15.416420
18.029169 16.220784 11.169054
17.948685 16.226852 11.258753
14.732600 16.469320 14.843073
14.652279 16.475375 14.932590
11.843568 16.687131 18.062891
11.763391 16.693176 18.152249
11.683218 16.699220 18.241602
18.075120 16.095617 10.872888
17.994472 16.101701 10.962777
17.913827 16.107784 11.052661
17.833187 16.113866 11.142540
17.752551 16.119949 11.232415
17.671918 16.126031 11.322286
17.591290 16.132113 11.412152
11.796563 16.569208 17.870798
11.716226 16.575268 17.960339
11.635894 16.581327 18.049876
11.555565 16.587387 18.139408
11.475240 16.593445 18.228936
17.878829 15.988237 10.845740
17.798028 15.994335 10.935806
17.555647 16.012627 11.205974
17.474862 16.018724 11.296022
17.394081 16.024820 11.386064
11.427407 16.475110 18.036810
11.346927 16.481184 18.126517
10.703227 16.529762 18.844016
10.622783 16.535833 18.933683
10.814980 16.398915 18.473065
10.734367 16.405002 18.562926
10.653759 16.411088 18.652782
10.573154 16.417174 18.742634
10.492553 16.423260 18.832482
10.411956 16.429346 18.922325
10.684861 16.285835 18.370737
18.098180 15.602122 9.857410
18.552166 15.443601 9.101274
18.470673 15.449764 9.192135
18.389184 15.455926 9.282992
18.307699 15.462088 9.373844
18.226218 15.468249 9.464692
18.144741 15.474410 9.555534
18.063268 15.480571 9.646373
10.341979 16.064453 18.255264
10.260897 16.070584 18.345666
10.179820 16.076715 18.436063
8.966423 15.793906 19.035044
8.884913 15.800079 19.125943
8.803407 15.806252 19.216837
8.749390 15.684471 19.023729
8.667724 15.690660 19.114809
8.586061 15.696848 19.205885
18.627429 14.809194 7.751920
8.449670 15.580805 19.103632
8.367851 15.587008 19.194888
15.649217 17.001010 14.857242
15.569696 17.006990 14.946185
15.490180 17.012971 15.035123
15.410668 17.018950 15.124056
15.331160 17.024930 15.212984
15.251657 17.030909 15.301907
15.172158 17.036888 15.390826
15.848759 16.866616 14.392376
15.769067 16.872613 14.481516
15.689380 16.878609 14.570652
15.609698 16.884605 14.659782
14.972395 16.932561 15.372649
14.813114 16.944547 15.550817
15.809556 16.749701 14.193577
15.610184 16.644372 14.172994
15.530185 16.650398 14.262492
15.450190 16.656424 14.351985
15.290213 16.668475 14.530956
15.210232 16.674500 14.620435
15.130255 16.680525 14.709908
15.050282 16.686550 14.799377
14.970314 16.692574 14.888840
14.890350 16.698598 14.978299
14.810390 16.704621 15.067752
15.169599 16.556754 14.421334
15.089463 16.562794 14.510993
15.009331 16.568834 14.600646
14.929203 16.574873 14.690294
14.849080 16.580912 14.779938
14.768962 16.586951 14.869576
14.688847 16.592990 14.959210
11.887641 16.804124 18.093259
18.022437 16.220311 10.983730
17.941980 16.226379 11.073753
17.861528 16.232446 11.163772
14.887928 16.456700 14.490951
14.807645 16.462754 14.580780
14.727366 16.468808 14.670604
14.647092 16.474862 14.760423
11.840305 16.686535 17.900954
11.760191 16.692577 17.990594
11.680082 16.698619 18.080229
11.599977 16.704660 18.169859
11.519876 16.710701 18.259484
18.067888 16.094974 10.686084
17.987266 16.101057 10.776300
17.906648 16.107140 10.866511
17.826035 16.113223 10.956716
17.745426 16.119306 11.046917
17.664821 16.125388 11.137113
17.584221 16.131470 11.227303
11.792780 16.568474 17.707876
11.712506 16.574531 17.797701
11.632237 16.580588 17.887522
11.551972 16.586644 17.977338
11.471712 16.592700 18.067148
11.391456 16.598756 18.156954
10.749569 16.647191 18.875219
17.467343 16.017909 11.110349
17.386590 16.024006 11.200717
17.305842 16.030102 11.291081
11.905944 16.437790 17.333981
11.825501 16.443863 17.424003
10.458653 16.547059 18.953610
10.730307 16.403957 18.401437
10.649766 16.410041 18.491576
10.569229 16.416125 18.581710
10.488697 16.422208 18.671839
10.408169 16.428291 18.761962
10.327646 16.434374 18.852081
18.611050 15.685206 9.331742
18.529904 15.691339 9.422565
18.448762 15.697472 9.513383
18.367625 15.703605 9.604195
18.205365 15.715869 9.785805
10.599562 16.290747 18.298591
18.576781 15.563865 9.119217
18.007706 15.606902 9.756202
10.468293 16.177084 18.195333
10.225740 16.195427 18.466833
10.144897 16.201541 18.557322
9.983226 16.213768 18.738286
18.135044 15.472852 9.361798
18.053593 15.479016 9.452977
17.972146 15.485179 9.544151
10.255486 16.069096 18.182351
10.174476 16.075226 18.273035
10.093471 16.081356 18.363714
10.012471 16.087485 18.454387
9.931475 16.093614 18.545056
8.797459 15.804302 19.055115
8.716031 15.810474 19.146289
8.634607 15.816646 19.237458
8.579694 15.694744 19.043744
8.498110 15.700932 19.135099
8.416531 15.707119 19.226450
18.532833 14.812844 7.641346
15.702610 16.996996 14.742556
15.622891 17.002991 14.831390
15.543175 17.008986 14.920219
15.463463 17.014981 15.009045
15.383756 17.020976 15.097865
15.304052 17.026970 15.186682
15.224352 17.032964 15.275494
15.144656 17.038958 15.364301
15.064964 17.044951 15.453105
14.985276 17.050944 15.541904
14.944829 16.934578 15.346147
14.785151 16.946593 15.524095
14.705317 16.952600 15.613061
15.704434 16.757508 14.257792
15.624395 16.763533 14.346994
15.544360 16.769558 14.436191
15.464329 16.775583 14.525384
15.384302 16.781608 14.614573
15.064233 16.805703 14.971283
14.984225 16.811726 15.060450
14.824223 16.823771 15.238770
14.744227 16.829793 15.327923
14.664236 16.835815 15.417072
15.585053 16.646103 14.148029
15.504859 16.652143 14.237410
15.424670 16.658183 14.326785
15.344484 16.664223 14.416157
15.264302 16.670262 14.505524
15.184124 16.676301 14.594887
15.103950 16.682339 14.684245
15.023781 16.688378 14.773598
14.943615 16.694415 14.862948
14.863453 16.700453 14.952293
14.783295 16.706491 15.041633
14.703141 16.712528 15.130969
14.622991 16.718564 15.220300
14.542845 16.724601 15.309628
18.038483 16.340347 11.169574
14.983167 16.570583 14.575123
14.742204 16.588741 14.843708
14.661890 16.594793 14.933228
11.933621 16.800384 17.974241
11.853447 16.806426 18.063605
11.773278 16.812467 18.152965
18.084433 16.215428 10.873397
18.003792 16.221508 10.963289
17.923154 16.227587 11.053176
17.842521 16.233666 11.143059
17.761891 16.239745 11.232937
17.681266 16.245824 11.322811
11.806449 16.688747 17.871508
11.726120 16.694803 17.961051
11.645796 16.700859 18.050589
11.565475 16.706914 18.140123
11.485158 16.712970 18.229653
17.888163 16.108285 10.846248
17.807368 16.114380 10.936316
17.726578 16.120474 11.026380
17.645791 16.126568 11.116440
17.565009 16.132661 11.206495
17.484230 16.138755 11.296545
17.403456 16.144847 11.386591
11.678774 16.576667 17.768367
11.598289 16.582738 17.858090
11.517809 16.588809 17.947808
11.437332 16.594879 18.037522
11.356860 16.600949 18.127231
10.713224 16.649499 18.844745
10.632788 16.655567 18.934414
17.448290 16.019049 11.089716
17.367353 16.025157 11.179949
10.824968 16.518904 18.473786
10.744364 16.524988 18.563649
10.663763 16.531070 18.653507
10.583166 16.537153 18.743361
10.502574 16.543235 18.833210
10.421985 16.549317 18.923055
18.548008 15.813099 9.615705
18.466853 15.819227 9.706188
18.385701 15.825355 9.796666
10.210355 16.442651 18.911652
18.107508 15.722922 9.857880
10.078788 16.329454 18.810005
18.561460 15.564671 9.101716
18.479973 15.570830 9.192580
18.398491 15.576989 9.283440
18.317013 15.583147 9.374296
18.235539 15.589305 9.465147
17.991141 15.607778 9.737672
10.352022 16.185169 18.255978
9.946697 16.215805 18.707952
18.037556 15.479826 9.434933
10.220195 16.070991 18.152602
10.138963 16.077134 18.243189
10.057735 16.083277 18.333772
8.976612 15.915319 19.035772
8.895111 15.921489 19.126673
8.813613 15.927658 19.217569
8.759604 15.806130 19.024457
8.677946 15.812314 19.115539
8.596292 15.818499 19.206616
18.636738 14.931530 7.752305
18.554410 14.937769 7.844141
8.459917 15.702705 19.104361
15.756614 17.230488 15.111886
15.677300 17.236447 15.200520
15.597992 17.242405 15.289149
15.518687 17.248363 15.377773
15.439386 17.254320 15.466393
15.360090 17.260278 15.555008
15.716990 17.114929 14.915105
15.637520 17.120902 15.003921
15.558054 17.126875 15.092732
15.478592 17.132848 15.181538
15.399134 17.138821 15.270340
15.319681 17.144793 15.359137
15.240232 17.150765 15.447929
15.081347 17.162708 15.625499
14.881120 17.058779 15.607309
14.801535 17.064764 15.696260
15.796853 16.870413 14.340798
14.839595 16.942444 15.410784
14.759852 16.948444 15.499919
14.680113 16.954444 15.589048
15.556902 16.648043 14.120065
15.236507 16.672178 14.478243
15.156420 16.678211 14.567775
15.076336 16.684244 14.657303
14.996257 16.690276 14.746826
14.916182 16.696308 14.836344
14.836112 16.702339 14.925857
14.756045 16.708371 15.015365
18.087275 16.336386 11.045121
18.006870 16.342446 11.135015
17.926469 16.348506 11.224904
17.846073 16.354565 11.314788
14.954710 16.572486 14.547364
14.633796 16.596673 14.906149
11.908838 16.802052 17.952684
11.828768 16.808087 18.042203
11.748703 16.814122 18.131717
11.668642 16.820156 18.221226
11.588585 16.826190 18.310730
17.971279 16.223594 10.927645
17.890717 16.229669 11.017722
17.810159 16.235744 11.107793
17.729606 16.241818 11.197859
17.649057 16.247893 11.287921
17.568512 16.253967 11.377977
11.780794 16.690422 17.849195
11.700569 16.696472 17.938895
11.620348 16.702522 18.028590
11.540131 16.708571 18.118280
11.459918 16.714620 18.207965
10.818375 16.762999 18.925271
17.451265 16.140800 11.260948
17.370567 16.146889 11.351183
10.928960 16.632920 18.554051
10.848617 16.638982 18.643888
10.768279 16.645044 18.733721
10.687945 16.651105 18.823548
10.607615 16.657166 18.913371
18.546922 15.935578 9.786580
18.465999 15.941687 9.877072
18.385081 15.947796 9.967560
18.187887 15.839645 9.937858
18.558601 15.688085 9.271997
18.477346 15.694226 9.362875
18.071139 15.724926 9.817190
10.535950 16.294409 18.244788
10.455135 16.300517 18.335174
10.212716 16.318838 18.606303
10.131919 16.324945 18.696670
9.918118 16.217399 18.684222
9.298004 16.140105 19.125278
9.216924 16.146239 19.215974
9.162963 16.025629 19.022753
9.081723 16.031779 19.113635
9.000489 16.037929 19.204511
8.919258 16.044078 19.295383
8.945977 15.916857 19.010882
8.864581 15.923022 19.101945
8.783191 15.929187 19.193003
8.701804 15.935351 19.284056
18.711377 15.051041 7.829081
18.629273 15.057263 7.920945
15.754245 17.231365 14.775973
15.674394 17.237365 14.864572
15.594547 17.243365 14.953168
15.514703 17.249365 15.041760
15.434863 17.255365 15.130348
15.355026 17.261364 15.218932
15.275193 17.267363 15.307513
15.195362 17.273361 15.396089
15.115536 17.279360 15.484662
15.035713 17.285358 15.573231
15.715282 17.115410 14.578717
15.635274 17.121425 14.667497
14.995330 17.169533 15.377598
14.835379 17.181557 15.555085
14.714390 17.071326 15.447953
14.634265 17.077352 15.536868
15.636891 16.882112 14.181846
15.556565 16.888156 14.270988
15.476242 16.894199 14.360127
15.395923 16.900242 14.449262
15.315608 16.906285 14.538393
15.074682 16.924412 14.805762
14.994380 16.930454 14.894878
14.914082 16.936496 14.983990
14.833787 16.942537 15.073098
14.753496 16.948578 15.162202
14.673208 16.954619 15.251302
15.195067 16.795052 14.428806
15.114598 16.801109 14.518112
15.034134 16.807166 14.607414
14.712309 16.831390 14.964582
18.059633 16.458552 11.005112
17.978878 16.464633 11.094741
17.898127 16.470714 11.184365
15.074048 16.683379 14.318786
14.993423 16.689451 14.408271
14.912801 16.695522 14.497752
14.832183 16.701593 14.587229
14.751569 16.707663 14.676702
11.851774 16.926030 17.895159
11.771288 16.932091 17.984489
11.690807 16.938152 18.073815
11.610328 16.944212 18.163137
11.529854 16.950272 18.252455
17.943966 16.345898 10.887984
17.863054 16.351994 10.977793
17.782145 16.358090 11.067599
17.701239 16.364185 11.157400
17.620337 16.370280 11.247198
17.539439 16.376374 11.336991
11.723991 16.814492 17.791890
11.643348 16.820567 17.881399
11.562710 16.826642 17.970904
11.482075 16.832717 18.060406
11.401443 16.838792 18.149903
10.998338 16.869160 18.597333
10.917727 16.875233 18.686808
10.756516 16.887378 18.865745
17.503576 16.257236 11.130329
17.422520 16.263345 11.220304
17.341466 16.269454 11.310275
10.707098 16.769484 18.674578
18.164021 15.962252 9.901193
10.688751 16.526152 18.199913
10.202277 16.562850 18.739976
10.476397 16.419075 18.186648
10.070215 16.449729 18.637601
18.257731 15.707970 9.297077
18.175980 15.714143 9.387844
18.094233 15.720315 9.478607
18.012490 15.726486 9.569366
9.856239 16.342299 18.625178
9.098973 16.150852 18.963028
9.017291 16.157025 19.053730
8.935613 16.163197 19.144427
8.853938 16.169369 19.235121
8.799963 16.048382 19.042062
8.718127 16.054569 19.132941
8.636295 16.060756 19.223815
18.612350 15.180628 7.890753
18.529911 15.186863 7.982306
8.499773 15.945508 19.121408
18.578011 15.056796 7.673136
15.559926 17.365877 14.743414
15.479832 17.371894 14.832129
15.399742 17.377910 14.920840
15.319654 17.383926 15.009547
15.239570 17.389941 15.098251
15.159489 17.395957 15.186952
15.079411 17.401972 15.275649
14.999336 17.407987 15.364342
14.718311 17.310222 15.434652
14.596948 17.199995 15.327164
14.516572 17.206037 15.416200
15.522317 17.010575 14.059134
15.441743 17.016635 14.148396
15.361172 17.022694 14.237654
15.280604 17.028753 14.326908
15.200039 17.034813 14.416159
15.119478 17.040871 14.505406
15.038920 17.046930 14.594649
14.958365 17.052988 14.683889
14.877814 17.059046 14.773125
14.797266 17.065104 14.862358
14.716721 17.071162 14.951587
14.636179 17.077219 15.040812
14.555641 17.083276 15.130034
14.475106 17.089333 15.219252
15.402033 16.899289 13.948470
15.159849 16.917511 14.216781
15.079127 16.923584 14.306210
14.998409 16.929657 14.395636
14.917694 16.935730 14.485058
14.836983 16.941802 14.574477
14.756274 16.947875 14.663892
14.675569 16.953947 14.753303
14.594867 16.960019 14.842711
17.709475 16.604797 11.147066
11.725272 17.055215 17.777198
11.644528 17.061293 17.866658
11.563787 17.067370 17.956114
11.483050 17.073447 18.045566
11.402316 17.079524 18.135015
17.917607 16.467750 10.670426
17.836447 16.473861 10.760351
17.755291 16.479972 10.850272
17.674137 16.486083 10.940190
17.592987 16.492194 11.030104
17.511841 16.498304 11.120015
17.430698 16.504414 11.209922
11.677986 16.937584 17.583932
11.597081 16.943676 17.673575
11.516179 16.949768 17.763214
11.435280 16.955860 17.852850
11.354385 16.961951 17.942482
11.273493 16.968042 18.032110
10.869083 16.998494 18.480197
10.788211 17.004583 18.569804
17.476036 16.379142 10.912676
17.394730 16.385267 11.002768
17.313428 16.391391 11.092857
17.232128 16.397515 11.182941
11.792653 16.807267 17.210224
10.738957 16.886641 18.377785
10.657927 16.892745 18.467572
10.576900 16.898848 18.557355
10.495876 16.904952 18.647135
10.414856 16.911055 18.736910
18.417977 16.185806 9.620877
18.336467 16.191948 9.711199
18.254961 16.198090 9.801518
18.173459 16.204232 9.891833
10.689505 16.768223 18.184994
10.558498 16.655461 18.081582
18.349585 15.944709 9.197505
17.940429 15.975568 9.650952
10.345455 16.548396 18.068091
10.263946 16.554544 18.158423
18.069181 15.841988 9.257175
17.987187 15.848175 9.348049
17.905198 15.854361 9.438920
10.213236 16.434744 17.964032
9.589552 16.357693 18.403694
9.180534 16.388567 18.857040
9.098741 16.394741 18.947698
9.016951 16.400915 19.038353
9.045469 16.274161 18.754174
8.963513 16.280350 18.845016
8.881562 16.286539 18.935855
8.799613 16.292727 19.026690
8.827741 16.165498 18.741920
8.745626 16.171702 18.832944
8.663515 16.177905 18.923965
8.581408 16.184108 19.014981
18.506877 15.308338 7.757287
18.424191 15.314588 7.848950
15.506684 17.369189 15.025275
15.427106 17.375164 15.114165
15.347531 17.381139 15.203050
15.267961 17.387114 15.291930
15.188395 17.393088 15.380806
14.829252 17.301412 15.540719
15.746817 17.113322 14.273425
15.666907 17.119328 14.362699
15.587000 17.125335 14.451968
15.507097 17.131341 14.541232
14.868031 17.179378 15.255176
14.788166 17.185381 15.344397
14.708306 17.191384 15.433614
14.628451 17.197386 15.522826
15.627402 17.002667 14.163572
15.307166 17.026751 14.521355
15.227117 17.032771 14.610788
15.147073 17.038791 14.700217
15.186658 16.915718 14.411786
15.106455 16.921753 14.501400
15.026256 16.927788 14.591008
14.946061 16.933822 14.680612
14.865871 16.939856 14.770211
14.785684 16.945890 14.859805
14.705503 16.951924 14.949395
11.821803 17.168913 18.171433
17.880941 16.592292 11.155977
17.800431 16.598354 11.245939
11.934861 17.039955 17.800184
11.854669 17.045993 17.889790
11.694299 17.058067 18.068990
11.614120 17.064103 18.158582
11.533946 17.070139 18.248170
17.764952 16.479852 11.039189
17.684286 16.485928 11.129332
17.603624 16.492004 11.219471
17.522966 16.498080 11.309605
17.442313 16.504155 11.399735
11.807318 16.928625 17.696793
11.646628 16.940729 17.876363
11.566290 16.946781 17.966140
11.485956 16.952832 18.055913
11.405626 16.958883 18.145680
17.325233 16.391328 11.283211
11.920804 16.798648 17.323059
10.713517 16.889638 18.672291
10.633066 16.895702 18.762201
18.422671 16.186431 9.808289
18.341641 16.192541 9.898852
18.260616 16.198651 9.989410
10.824929 16.759364 18.299953
10.694442 16.646836 18.196965
18.435005 15.939632 9.294549
18.353644 15.945774 9.385496
18.272287 15.951915 9.476438
18.190935 15.958057 9.567375
18.109588 15.964197 9.658307
18.028244 15.970338 9.749235
10.239718 16.558295 18.455424
10.158800 16.564404 18.545876
9.325096 16.380206 18.975282
9.243896 16.386343 19.066063
9.162700 16.392479 19.156840
9.109232 16.272201 18.963823
9.027876 16.278352 19.054785
8.946525 16.284504 19.145741
8.865179 16.290654 19.236693
18.706100 15.421314 7.979167
18.624055 15.427521 8.070907
8.810999 16.169933 19.043461
8.729493 16.176099 19.134598
18.589596 15.304386 7.853752
18.507387 15.310609 7.945681
15.145384 17.515210 15.496302
15.662987 17.357987 14.677324
15.583299 17.363971 14.766376
15.503616 17.369954 14.855424
15.423937 17.375937 14.944468
14.866302 17.417808 15.567636
14.825549 17.302048 15.371695
15.664480 17.119692 14.191581
15.584472 17.125706 14.281005
15.504469 17.131720 14.370423
15.424470 17.137733 14.459837
15.344475 17.143746 14.549246
14.784633 17.185827 15.174973
14.704673 17.191838 15.264343
14.624717 17.197848 15.353709
15.544980 17.008869 14.081658
15.224357 17.032982 14.440039
14.823677 17.063116 14.887906
14.743554 17.069142 14.977465
15.103765 16.921782 14.330400
15.023465 16.927824 14.420163
14.943170 16.933866 14.509921
14.862879 16.939908 14.599674
14.782592 16.945949 14.689423
14.702310 16.951990 14.779166
14.622032 16.958031 14.868905
11.815032 17.169251 18.006706
11.734910 17.175280 18.096271
11.654792 17.181308 18.185830
18.043230 16.579719 10.798860
17.962609 16.585789 10.888989
17.801380 16.597928 11.069233
17.720772 16.603996 11.159347
17.640168 16.610065 11.249456
11.848165 17.046134 17.724518
11.767880 17.052179 17.814272
11.607321 17.064267 17.993765
11.527049 17.070310 18.083504
11.446781 17.076354 18.173238
17.766077 16.479232 10.862066
17.685308 16.485317 10.952367
17.604543 16.491401 11.042663
17.523782 16.497484 11.132955
17.443026 16.503567 11.223241
17.362275 16.509650 11.313523
11.559660 16.946755 17.800929
10.916323 16.995217 18.520189
17.245111 16.396652 11.196923
11.834222 16.804471 17.246825
10.625527 16.895570 18.598265
18.425083 16.185351 9.628905
18.343950 16.191469 9.719627
18.262821 16.197587 9.810344
18.181697 16.203705 9.901055
10.737134 16.765107 18.225425
18.356417 15.944303 9.205266
18.274956 15.950453 9.296368
18.193500 15.956602 9.387464
18.112048 15.962751 9.478555
18.030601 15.968900 9.569642
17.949159 15.975048 9.660723
10.394442 16.545383 18.109537
10.313417 16.551500 18.200151
10.232396 16.557617 18.290760
10.151380 16.563733 18.381364
9.856795 16.462458 18.459789
9.235845 16.385368 18.902280
9.154551 16.391512 18.993208
9.073263 16.397656 19.084131
8.991978 16.403799 19.175049
9.019803 16.277202 18.890910
8.938355 16.283361 18.982019
8.856911 16.289520 19.073122
8.775472 16.295678 19.164220
18.628081 15.425219 7.888168
18.545935 15.431435 7.980063
8.721301 16.174782 18.970785
8.639702 16.180955 19.062069
15.298457 17.503774 15.312860
15.218671 17.509764 15.401459
15.138889 17.515753 15.490053
15.338457 17.382393 15.027855
15.258510 17.388397 15.116637
15.178567 17.394402 15.205416
15.098628 17.400406 15.294191
15.018692 17.406409 15.382962
14.858831 17.418416 15.560492
15.418942 17.138160 14.454392
14.776874 17.186427 15.167511
14.696631 17.192460 15.256633
14.616392 17.198491 15.345751
14.536157 17.204523 15.434865
15.539867 17.009254 14.076576
15.218137 17.033451 14.433930
15.137714 17.039499 14.523259
15.057294 17.045547 14.612584
14.816055 17.063690 14.880533
14.735650 17.069737 14.969842
15.097125 16.922267 14.323881
15.016545 16.928330 14.413389
14.935968 16.934393 14.502893
14.855395 16.940455 14.592393
14.774826 16.946517 14.681889
14.694260 16.952579 14.771381
14.613698 16.958641 14.860869
11.715849 17.176676 18.079783
17.965457 16.585587 10.892113
17.884586 16.591675 10.981949
17.803718 16.597762 11.071782
17.722854 16.603849 11.161611
11.748946 17.053528 17.797797
11.668353 17.059595 17.887326
11.587763 17.065661 17.976850
11.507177 17.071727 18.066370
11.426595 17.077793 18.155886
17.849333 16.472978 10.774482
17.768303 16.479080 10.864500
17.687277 16.485182 10.954514
17.606255 16.491283 11.044524
17.525236 16.497384 11.134530
17.444221 16.503485 11.224532
11.701421 16.935961 17.604382
11.620666 16.942042 17.694095
11.539916 16.948123 17.783803
10.894041 16.996763 18.501325
10.813323 17.002841 18.590997
17.326839 16.390500 11.107343
11.815546 16.805727 17.230382
10.602081 16.897151 18.578540
10.521212 16.903243 18.668385
10.440347 16.909336 18.758226
18.185231 16.203479 9.905013
10.714136 16.766612 18.205903
10.583041 16.653904 18.102413
18.360495 15.944060 9.209900
18.197072 15.956390 9.391497
10.370064 16.546882 18.088912
10.288711 16.553020 18.179312
9.614924 16.356228 18.424766
9.206701 16.387054 18.878443
9.125067 16.393218 18.969166
9.043437 16.399382 19.059885
9.071548 16.272704 18.775502
8.989753 16.278883 18.866410
8.907962 16.285062 18.957314
8.826174 16.291241 19.048214
8.771940 16.170280 18.854329
8.689990 16.176474 18.945415
18.516052 15.307900 7.767987
18.433490 15.314143 7.859761
15.479291 17.370909 15.164973
15.399714 17.376884 15.253704
15.240574 17.388835 15.431152
15.838004 17.225401 14.523480
15.678500 17.237385 14.701346
15.040646 17.285308 15.412630
14.960932 17.291297 15.501520
14.881222 17.297285 15.590406
14.760074 17.187380 15.483100
14.680214 17.193383 15.572159
15.679007 16.998783 14.214860
15.598940 17.004805 14.304157
15.518876 17.010826 14.393450
15.438817 17.016847 14.482738
15.358762 17.022868 14.572021
15.278711 17.028888 14.661300
15.198664 17.034908 14.750574
15.118620 17.040928 14.839844
15.038581 17.046948 14.929110
14.958546 17.052967 15.018370
14.878516 17.058986 15.107627
14.798489 17.065004 15.196879
14.718466 17.071023 15.286126
14.638447 17.077041 15.375369
15.318263 16.905923 14.372784
15.238052 16.911958 14.462247
15.157846 16.917994 14.551705
15.077643 16.924028 14.641159
14.997444 16.930063 14.730609
14.917250 16.936097 14.820054
14.837059 16.942131 14.909494
14.756873 16.948165 14.998930
14.596512 16.960231 15.177788
11.952909 17.159149 18.126332
17.932140 16.588666 11.211799
14.956142 16.812708 14.531310
11.905530 17.042368 17.934047
11.825331 17.048405 18.023504
11.745135 17.054443 18.112956
11.664943 17.060480 18.202404
11.584756 17.066517 18.291848
17.977305 16.464199 10.914825
17.896633 16.470275 11.004815
17.815966 16.476351 11.094800
17.735302 16.482427 11.184780
17.654643 16.488503 11.274756
17.573988 16.494578 11.364727
11.777601 16.931169 17.830629
11.697246 16.937222 17.920266
11.616894 16.943274 18.009899
11.536546 16.949326 18.099528
11.456202 16.955377 18.189151
10.893911 16.997730 18.816390
17.537690 16.375770 11.157655
17.456876 16.381860 11.247808
17.376068 16.387950 11.337957
11.890726 16.801324 17.457316
11.810201 16.807392 17.547148
10.844222 16.880188 18.624779
10.683282 16.892316 18.804320
10.602819 16.898380 18.894084
10.391208 16.792566 18.882144
18.357455 16.069358 9.744850
18.276270 16.075482 9.835432
18.195089 16.081606 9.926008
10.744238 16.643676 18.239230
10.259531 16.680241 18.780038
10.127328 16.567466 18.677523
18.368956 15.821850 9.229646
18.287438 15.828006 9.320612
18.205924 15.834161 9.411573
18.124415 15.840317 9.502529
10.186355 16.316000 18.108530
10.105091 16.322139 18.199218
10.023832 16.328279 18.289902
9.942577 16.334418 18.380582
9.861326 16.340557 18.471256
9.780079 16.346695 18.561926
9.157759 16.269487 19.003388
9.076381 16.275638 19.094211
9.022288 16.154993 18.900515
8.940749 16.161160 18.991523
8.859215 16.167327 19.082527
8.777685 16.173493 19.173526
18.638848 15.302033 7.911190
18.556643 15.308254 8.002950
15.184925 17.393883 15.211568
15.105263 17.399865 15.300593
14.784633 17.185827 15.174973
14.704673 17.191838 15.264343
15.544980 17.008869 14.081658
15.464818 17.014898 14.171260
15.384660 17.020927 14.260858
15.304506 17.026955 14.350451
15.224357 17.032982 14.440039
15.144213 17.039010 14.529622
15.064072 17.045037 14.619200
14.983936 17.051064 14.708773
14.903804 17.057090 14.798342
14.823677 17.063116 14.887906
14.743554 17.069142 14.977465
14.583320 17.081193 15.156568
15.425008 16.897609 13.971300
15.103765 16.921782 14.330400
15.023465 16.927824 14.420163
14.943170 16.933866 14.509921
14.862879 16.939908 14.599674
14.782592 16.945949 14.689423
14.702310 16.951990 14.779166
14.622032 16.958031 14.868905
17.962609 16.585789 10.888989
17.881992 16.591858 10.979113
17.801380 16.597928 11.069233
17.720772 16.603996 11.159347
11.848165 17.046134 17.724518
11.767880 17.052179 17.814272
11.687598 17.058223 17.904021
11.607321 17.064267 17.993765
11.527049 17.070310 18.083504
11.446781 17.076354 18.173238
17.846850 16.473148 10.771760
17.766077 16.479232 10.862066
17.685308 16.485317 10.952367
17.604543 16.491401 11.042663
17.523782 16.497484 11.132955
17.443026 16.503567 11.223241
11.720538 16.934637 17.621065
11.640097 16.940696 17.710999
11.559660 16.946755 17.800929
11.479228 16.952814 17.890853
11.398800 16.958873 17.980773
11.318376 16.964931 18.070688
10.916323 16.995217 18.520189
17.406934 16.384456 11.015990
17.326020 16.390554 11.106459
17.245111 16.396652 11.196923
11.834222 16.804471 17.246825
10.625527 16.895570 18.598265
10.544982 16.901641 18.688322
10.464442 16.907711 18.778374
18.425083 16.185351 9.628905
18.262821 16.197587 9.810344
10.737134 16.765107 18.225425
17.984381 16.095738 9.872020
10.606563 16.652412 18.122377
18.356417 15.944303 9.205266
17.949159 15.975048 9.660723
10.394442 16.545383 18.109537
10.313417 16.551500 18.200151
17.913793 15.853869 9.448567
10.262667 16.431800 18.005847
9.856795 16.462458 18.459789
9.235845 16.385368 18.902280
9.154551 16.391512 18.993208
9.101256 16.271043 18.799797
9.019803 16.277202 18.890910
8.938355 16.283361 18.982019
8.856911 16.289520 19.073122
8.775472 16.295678 19.164220
8.802905 16.168607 18.879495
8.721301 16.174782 18.970785
8.639702 16.180955 19.062069
18.511494 15.308118 7.762671
18.429186 15.314349 7.854756
14.797960 17.303897 15.510802
15.714081 17.115854 14.240885
15.634218 17.121857 14.330303
15.554359 17.127860 14.419717
15.474504 17.133862 14.509125
14.995473 17.169868 15.045470
14.915651 17.175868 15.134843
14.835833 17.181868 15.224211
14.756019 17.187867 15.313574
14.676210 17.193866 15.402932
14.596405 17.199864 15.492285
15.593863 17.005191 14.130240
15.273817 17.029260 14.488606
15.473167 16.894087 14.019155
15.152498 16.918217 14.378247
15.072342 16.924249 14.468007
14.992190 16.930280 14.557762
14.912043 16.936311 14.647512
14.831901 16.942342 14.737257
14.751763 16.948372 14.826997
14.671630 16.954402 14.916732
11.789854 17.171254 18.143798
18.005460 16.582754 10.935991
17.764030 16.600932 11.206370
11.821759 17.048338 17.861154
11.581383 17.066437 18.130354
11.501266 17.072469 18.220077
17.727716 16.482407 10.998597
17.647086 16.488481 11.088902
17.566461 16.494555 11.179201
17.485840 16.500628 11.269496
10.970797 16.991439 18.566304
10.890552 16.997484 18.656178
10.679524 16.891930 18.643693
10.599131 16.897990 18.733739
18.464457 16.182831 9.673385
18.383455 16.188941 9.764121
18.302458 16.195050 9.854852
18.221465 16.201158 9.945578
10.789889 16.761656 18.270209
10.658525 16.649115 18.166480
18.394078 15.942064 9.248053
18.312747 15.948205 9.339172
18.231420 15.954346 9.430287
18.150098 15.960487 9.521396
17.987468 15.972767 9.703598
10.445752 16.542227 18.152948
9.287172 16.382400 18.944263
9.206030 16.388534 19.035186
9.124892 16.394667 19.126103
9.151753 16.268220 18.841094
8.989152 16.280519 19.023308
8.907858 16.286668 19.114407
8.826570 16.292817 19.205501
18.579618 15.429747 8.019232
18.497601 15.435954 8.111149
8.771408 16.172073 19.011383
8.689959 16.178237 19.102664
18.462113 15.312774 7.893041
15.587133 17.482363 14.928548
15.507109 17.488372 15.017033
15.427089 17.494382 15.105515
15.347071 17.500390 15.193993
15.267057 17.506399 15.282468
15.187046 17.512408 15.370939
15.107037 17.518416 15.459407
15.788760 17.348762 14.465881
15.708570 17.354786 14.554554
15.468017 17.372857 14.820556
15.067157 17.402971 15.263825
14.986994 17.408993 15.352469
14.906834 17.415015 15.441109
14.826677 17.421036 15.529746
14.705851 17.311211 15.422739
14.625542 17.317247 15.511549
14.545236 17.323282 15.600356
15.630872 17.122292 14.158175
15.550367 17.128345 14.247206
15.469865 17.134397 14.336233
15.389367 17.140449 14.425257
15.308871 17.146500 14.514278
15.228379 17.152551 14.603295
15.147889 17.158603 14.692309
15.067403 17.164653 14.781319
14.986920 17.170704 14.870327
14.906439 17.176755 14.959330
14.825962 17.182805 15.048331
14.745488 17.188855 15.137328
14.665017 17.194904 15.226321
14.584549 17.200954 15.315311
14.504084 17.207003 15.404298
15.188499 17.035681 14.404827
15.107850 17.041746 14.494022
15.027204 17.047812 14.583213
14.946561 17.053876 14.672401
14.865921 17.059941 14.761586
14.785284 17.066006 14.850768
14.704651 17.072070 14.939946
14.624020 17.078134 15.029120
17.897813 16.711494 11.164721
11.676441 17.179564 18.045695
11.595764 17.185633 18.134925
11.515090 17.191703 18.224152
18.025253 16.580992 10.779082
17.944171 16.587095 10.868765
17.863092 16.593197 10.958445
17.782017 16.599299 11.048121
17.700944 16.605401 11.137793
17.619875 16.611503 11.227463
17.538808 16.617604 11.317128
11.710175 17.056291 17.764061
11.629334 17.062376 17.853477
11.548497 17.068460 17.942889
11.467663 17.074544 18.032298
11.386832 17.080628 18.121704
17.665760 16.486658 10.931058
17.584528 16.492774 11.020911
17.503300 16.498890 11.110760
17.422075 16.505006 11.200606
10.691229 17.011790 18.645848
10.610264 17.017886 18.735406
10.804227 16.881599 18.274612
18.329121 16.192418 9.702925
18.247536 16.198566 9.793179
18.165953 16.204713 9.883430
18.084374 16.210860 9.973677
10.673797 16.769251 18.171660
17.968007 16.096750 9.853746
10.461395 16.662594 18.158407
10.379948 16.668734 18.248513
18.260712 15.951300 9.280233
18.178797 15.957477 9.370860
18.096887 15.963653 9.461484
18.014979 15.969830 9.552105
17.933074 15.976006 9.642722
10.329760 16.549361 18.054813
10.248153 16.555515 18.145102
10.084946 16.567822 18.325668
9.298316 16.503515 18.945798
9.216582 16.509680 19.036231
9.134851 16.515846 19.126661
9.163846 16.389532 18.843391
9.081951 16.395713 18.934007
9.000059 16.401893 19.024620
8.918170 16.408073 19.115230
8.946779 16.281286 18.831372
8.864725 16.287481 18.922169
8.782673 16.293676 19.012963
8.700625 16.299870 19.103753
18.535164 15.431974 7.967537
15.151015 17.633888 15.493182
15.668815 17.476903 14.674327
15.589107 17.482884 14.763366
15.509403 17.488866 14.852401
15.429703 17.494847 14.941430
15.031269 17.524749 15.386507
14.951595 17.530729 15.475509
14.871925 17.536708 15.564505
15.629690 17.361222 14.476592
14.751402 17.427170 15.457767
14.671583 17.433164 15.546936
15.670436 17.239068 14.188660
15.590408 17.245080 14.278069
15.510385 17.251092 14.367474
15.430365 17.257104 14.456873
15.030332 17.287157 14.903800
14.950339 17.293167 14.993172
14.870349 17.299176 15.082538
14.790364 17.305185 15.171900
14.710383 17.311194 15.261257
14.630406 17.317202 15.350609
14.550433 17.323211 15.439956
15.230267 17.152581 14.437078
15.150101 17.158607 14.526647
15.069940 17.164632 14.616211
14.989784 17.170657 14.705771
14.909631 17.176682 14.795326
14.829483 17.182707 14.884876
14.749339 17.188731 14.974421
15.109709 17.041610 14.327456
15.029388 17.047651 14.417205
14.949072 17.053691 14.506949
14.868761 17.059731 14.596688
14.788453 17.065771 14.686423
14.708150 17.071810 14.776153
14.627851 17.077849 14.865878
11.900242 17.282985 17.913676
11.820093 17.289012 18.003233
11.739949 17.295040 18.092785
11.659808 17.301067 18.182333
11.579672 17.307094 18.271876
11.098946 17.343248 18.809034
17.969316 16.705916 10.886624
17.888680 16.711984 10.976732
17.808049 16.718051 11.066835
17.727422 16.724118 11.156933
17.646799 16.730185 11.247027
11.772996 17.172171 17.810823
11.692692 17.178214 17.900560
11.612393 17.184256 17.990293
11.532097 17.190298 18.080020
11.451806 17.196340 18.169743
10.970151 17.232583 18.707978
17.772801 16.599592 10.859705
17.692013 16.605674 10.949990
17.611229 16.611756 11.040270
17.530450 16.617838 11.130545
17.449675 16.623919 11.220816
17.368904 16.630000 11.311081
10.549889 17.022075 18.684759
18.269787 16.318436 9.808176
10.338522 16.916202 18.673081
18.479198 16.180031 9.324521
17.991347 16.216819 9.869841
10.207199 16.803815 18.570958
18.363532 16.065636 9.203212
18.282053 16.071783 9.294296
18.200578 16.077931 9.385375
18.119108 16.084078 9.476449
18.037643 16.090224 9.567518
17.956181 16.096370 9.658583
10.156386 16.684866 18.377839
10.075351 16.690980 18.468427
10.267776 16.553174 18.002371
10.186569 16.559304 18.093157
10.105367 16.565434 18.183938
10.024169 16.571564 18.274715
9.942976 16.577693 18.365486
9.861787 16.583822 18.456253
9.455908 16.614462 18.910012
9.374745 16.620589 19.000749
9.293587 16.626716 19.091481
9.322049 16.500814 18.807766
9.240727 16.506957 18.898688
9.159410 16.513099 18.989604
9.078098 16.519240 19.080516
8.996789 16.525382 19.171423
9.024695 16.399025 18.887319
8.943223 16.405182 18.978416
8.861755 16.411339 19.069508
18.553351 15.553752 7.978248
18.471192 15.559965 8.070120
15.816041 17.583695 14.810707
15.736698 17.589645 14.899694
15.657361 17.595594 14.988675
15.578028 17.601543 15.077651
15.498700 17.607491 15.166622
15.419376 17.613439 15.255588
15.340057 17.619387 15.344548
15.260743 17.625334 15.433503
15.181434 17.631281 15.522453
15.102129 17.637228 15.611398
15.022829 17.643175 15.700337
15.856368 17.462583 14.524120
15.776864 17.468548 14.613295
15.697365 17.474513 14.702465
14.823185 17.540102 15.682985
15.737532 17.352942 14.415096
15.657875 17.358922 14.504450
15.578223 17.364902 14.593798
14.941177 17.412727 15.308394
14.861568 17.418704 15.397695
14.781963 17.424680 15.486990
14.702363 17.430656 15.576280
15.378811 17.260853 14.574225
15.139438 17.278835 14.842760
15.059656 17.284828 14.932261
14.820340 17.302805 15.200732
14.740577 17.308796 15.290211
15.258573 17.150391 14.464879
15.178623 17.156400 14.554575
15.098678 17.162409 14.644267
15.018738 17.168418 14.733953
14.938803 17.174426 14.823634
14.858872 17.180434 14.913310
14.778946 17.186441 15.002980
11.984530 17.396476 18.138080
11.904775 17.402470 18.227558
18.105078 16.816336 11.025859
18.024797 16.822374 11.115935
17.944521 16.828412 11.206006
17.864249 16.834449 11.296072
11.857497 17.286198 18.035691
11.777588 17.292207 18.125349
11.697684 17.298217 18.215002
11.617785 17.304226 18.304649
17.909202 16.710485 10.999177
17.828770 16.716537 11.089430
17.748342 16.722590 11.179678
17.667920 16.728642 11.269920
17.587502 16.734693 11.360157
17.507089 16.740745 11.450388
11.810029 17.169458 17.843052
11.729961 17.175483 17.932896
11.649898 17.181508 18.022735
11.569840 17.187533 18.112568
11.489786 17.193557 18.202397
11.089590 17.223672 18.651456
11.009565 17.229694 18.741252
17.470822 16.622421 11.243666
17.390252 16.628487 11.334080
11.040493 17.106603 18.459721
10.799954 17.124715 18.729652
18.403559 16.430601 9.948446
18.322770 16.436688 10.039114
18.126107 16.329433 10.010327
10.378268 16.913522 18.706316
18.415317 16.185047 9.435179
18.334197 16.191167 9.526234
18.253082 16.197285 9.617284
10.488725 16.782973 18.332535
10.195618 16.682374 18.410735
9.710949 16.718956 18.954807
9.630188 16.725052 19.045466
9.549432 16.731147 19.136120
9.496731 16.611944 18.943514
9.415817 16.618055 19.034353
9.334908 16.624166 19.125186
9.254004 16.630276 19.216013
18.637212 15.797505 8.428231
9.281666 16.504510 18.932177
9.200598 16.510636 19.023196
9.119536 16.516762 19.114209
9.038479 16.522888 19.205216
18.684525 15.669307 8.120397
18.602720 15.675493 8.212252
18.520920 15.681678 8.304101
15.195904 17.749129 15.527845
15.711490 17.592665 14.707651
15.632037 17.598623 14.796838
15.552589 17.604580 14.886020
15.473146 17.610536 14.975196
15.393708 17.616493 15.064367
15.314274 17.622449 15.153533
15.234845 17.628404 15.242694
15.155421 17.634359 15.331849
15.076002 17.640314 15.420998
14.996588 17.646269 15.510143
14.917178 17.652223 15.599281
15.751562 17.471357 14.420207
15.671947 17.477330 14.509584
15.592337 17.483303 14.598955
14.796500 17.543011 15.492372
15.472715 17.373509 14.489831
14.834781 17.421399 15.206042
14.755061 17.427384 15.295544
14.675346 17.433368 15.385041
14.595636 17.439352 15.474532
14.515930 17.445335 15.564018
15.592387 17.245272 14.111067
15.272708 17.269285 14.470002
15.192801 17.275287 14.559722
15.112898 17.281289 14.649436
14.713457 17.311293 15.097928
15.151984 17.158637 14.360194
15.071922 17.164654 14.450095
14.991865 17.170671 14.539990
14.911813 17.176688 14.629880
14.831765 17.182705 14.719765
14.751723 17.188721 14.809644
14.671685 17.194737 14.899518
11.873428 17.405057 18.041655
11.793565 17.411060 18.131332
17.841460 16.836168 11.093603
17.761072 16.842213 11.183878
11.905934 17.282560 17.759106
11.825907 17.288579 17.848975
11.745885 17.294597 17.938838
11.665868 17.300615 18.028696
11.585856 17.306632 18.118548
11.505849 17.312649 18.208395
17.805784 16.718038 10.886064
17.725234 16.724100 10.976528
17.644690 16.730161 11.066986
17.564150 16.736222 11.157438
17.483615 16.742282 11.247885
11.778195 17.171631 17.655518
11.617836 17.183698 17.835613
11.537665 17.189731 17.925653
11.457498 17.195764 18.015687
11.377335 17.201797 18.105715
10.896465 17.237983 18.645769
17.366456 16.629815 11.130895
11.890989 17.042111 17.280789
10.927091 17.114691 18.363413
10.686226 17.132828 18.633945
18.300254 16.437679 9.832405
18.219346 16.443775 9.923287
18.022084 16.336330 9.894197
