ply
format ascii 1.0
comment made by patoriko hoffmann
element vertex 1629
property double x
property double y
property double z
end_header
-7.035913 15.401842 35.900606
20.252566 13.247077 7.170672
6.829829 14.243301 21.177621
6.406034 14.274755 21.619862
-6.697948 15.247322 35.294183
-7.125067 15.279022 35.739892
33.566607 12.130472 -6.974661
20.220208 13.120531 6.951649
19.798825 13.151790 7.391340
6.769556 14.118324 20.986741
6.344875 14.149827 21.429874
-7.043372 15.142990 35.399850
33.561715 12.001859 -7.222403
33.142731 12.032924 -6.785245
20.187716 12.993462 6.731720
19.765459 13.024770 7.172294
6.453704 14.011759 21.061473
-6.961345 15.006406 35.058426
-7.218697 15.025487 35.326941
33.556803 11.872715 -7.471166
33.136954 11.903828 -7.033137
19.901221 12.884680 6.775743
6.562974 13.873129 20.691576
6.307097 13.892091 20.958533
-7.308788 14.901115 35.164027
33.299452 11.761733 -7.457629
20.037534 12.744023 6.377585
19.783123 12.762867 6.642994
6.245352 13.765588 20.765984
-7.226958 14.763462 34.820685
33.462608 11.619063 -7.883837
33.209654 11.637789 -7.619968
19.749516 12.634248 6.421030
6.354657 13.625875 20.393932
-7.576443 14.657200 34.926215
33.203980 11.507072 -7.871130
19.886092 12.492492 6.020481
6.035247 13.517346 20.468009
-7.667856 14.531268 34.761429
19.596537 12.381712 6.063336
5.972542 13.389258 20.273216
19.562328 12.251486 5.838759
4.184579 13.388136 21.876650
4.098284 13.394515 21.966649
-7.938735 14.284234 34.520398
17.812971 12.247412 7.401739
17.727176 12.253750 7.491210
5.759948 13.137848 19.971263
31.390758 11.110923 -7.019425
31.305460 11.117222 -6.930477
19.407589 11.995733 5.476340
3.877170 13.142463 21.671092
17.564249 11.997334 7.134842
5.545546 12.884298 19.666741
3.548752 13.031659 21.748797
31.200291 10.856474 -7.347204
19.251536 11.737808 5.110842
17.266378 11.884232 7.180613
3.393016 12.907524 21.645298
30.932741 10.741094 -7.333129
17.140309 11.757874 7.046112
5.329312 12.628582 19.359618
30.836116 10.612529 -7.498398
19.094151 11.477684 4.742228
5.176833 12.503120 19.250591
18.971544 11.349985 4.601990
5.111222 12.370671 19.049859
2.834138 12.538358 21.423469
18.935419 11.215331 4.370456
16.671718 11.381942 6.729940
4.957616 12.244112 18.939693
2.763333 12.405614 21.226822
2.675503 12.412078 21.318368
30.457140 10.229885 -7.908204
18.811943 11.086518 4.228814
16.630583 11.246981 6.502302
16.543271 11.253404 6.593301
4.803345 12.117005 18.829050
2.516181 12.285251 21.212810
18.687933 10.957147 4.086560
16.414269 11.124309 6.456071
4.581086 11.854642 18.514306
18.526071 10.690273 3.708735
4.424988 11.725856 18.402014
1.945423 11.907955 20.985711
18.400631 10.559198 3.564422
15.935797 10.740115 6.132574
4.268207 11.596507 18.289231
1.783105 11.778912 20.878500
18.274644 10.427551 3.419480
15.804338 10.608769 5.993135
4.199625 11.460071 18.083349
1.620076 11.649303 20.770818
18.236462 10.288851 3.181859
15.672304 10.476848 5.853087
4.041665 11.329574 17.969374
18.109567 10.156037 3.035446
-5.367197 15.832733 36.979648
7.414220 14.742036 22.785612
-5.376734 15.707858 36.733865
20.284406 13.643764 8.492997
7.431844 14.614407 22.508778
-5.386311 15.582452 36.487037
33.244288 12.537837 -5.899227
20.329569 13.513346 8.184685
7.449543 14.486233 22.230762
33.317375 12.404594 -6.239452
20.374925 13.382369 7.875052
-5.486953 15.336180 36.078954
-6.056461 15.379206 36.700037
33.390775 12.270779 -6.581137
7.403410 14.234418 21.760324
6.831144 14.277659 22.384430
-5.578364 15.215337 35.918068
-6.719727 15.301580 37.162823
20.384067 13.124937 7.341396
19.809019 13.168396 7.968552
7.339230 14.110797 21.568272
6.192328 14.197473 22.819099
-5.670165 15.093978 35.756494
-6.078692 15.124852 36.202039
33.455970 12.007658 -7.178889
32.878114 12.051337 -6.548655
20.347502 12.998503 7.117744
19.195012 13.085617 8.374697
7.274775 13.986646 21.375397
6.864261 14.017676 21.823120
-5.844241 14.978288 35.683533
-6.171755 15.003045 36.040734
-6.990444 15.064928 36.933630
33.447412 11.878373 -7.434581
32.289282 11.965930 -6.171446
20.310780 12.871525 6.893130
19.898262 12.902712 7.343052
7.127762 13.868183 21.271435
6.798651 13.893065 21.630386
5.975972 13.955261 22.527656
-5.937004 14.855902 35.520766
33.438816 11.748531 -7.691376
33.024274 11.779877 -7.239237
20.191216 12.750252 6.757733
19.860494 12.775260 7.118450
19.033790 12.837771 8.020133
7.062575 13.742978 21.077094
33.347093 11.624411 -7.858653
33.014746 11.649547 -7.496154
32.183979 11.712377 -6.590017
20.153998 12.622191 6.531374
-6.453350 14.634476 35.552653
-7.853983 14.740405 37.080357
6.600119 13.516000 21.047189
5.192617 13.622467 22.582425
-6.300281 14.491820 35.118328
19.746210 12.389587 6.438800
18.331776 12.496598 7.981637
6.782331 13.370388 20.579543
-6.477593 14.373586 35.043206
-6.643109 14.386108 35.223748
31.564483 11.362713 -6.723105
19.957975 12.240980 5.937371
6.632661 13.249310 20.472736
6.466329 13.261896 20.654173
4.969600 13.375154 22.286817
4.803326 13.387736 22.468190
19.836346 12.117022 5.798429
19.669191 12.129673 5.980768
18.165059 12.243512 7.621530
17.997962 12.256158 7.803805
4.649076 13.266457 22.365261
-6.751401 14.129292 34.801321
-6.917630 14.141873 34.982650
31.454876 11.103777 -7.148625
31.286950 11.116489 -6.965440
17.871833 12.131987 7.668644
6.414899 12.999255 20.166614
6.247847 13.011901 20.348845
4.577651 13.138331 22.170805
31.189349 10.989388 -7.133294
19.675440 11.861130 5.427157
19.507558 11.873840 5.610298
17.829064 12.000923 7.441357
-7.194542 13.895512 34.739453
31.175649 10.855345 -7.393878
6.027457 12.759721 20.040851
4.182291 12.899448 22.053783
4.098437 12.905798 22.145262
-7.208421 13.762023 34.480168
-7.375730 13.774693 34.662688
19.344508 11.615765 5.236581
17.490136 11.756215 7.259611
17.405863 11.762598 7.351548
6.042645 12.623252 19.748266
5.874504 12.635987 19.931700
3.941301 12.782408 22.040730
30.893976 10.604736 -7.641279
30.809281 10.611152 -7.548879
19.389183 11.476276 4.910222
19.220201 11.489077 5.094579
17.277331 11.636258 7.214211
-7.656466 13.525104 34.416492
30.709771 10.481822 -7.719493
5.651019 12.380492 19.619841
19.054804 11.227596 4.716113
3.381163 12.415392 21.816660
-7.939674 13.273320 34.168129
16.803322 11.260334 6.891316
5.425560 12.122740 19.305227
3.221063 12.289835 21.710483
18.887941 10.963797 4.334292
16.672322 11.131767 6.751747
5.269585 11.996230 19.193244
3.060255 12.163723 21.603837
18.761241 10.834257 4.188713
16.540742 11.002629 6.611560
5.112920 11.869160 19.080765
18.633979 10.704141 4.042488
5.040928 11.735052 18.874636
18.591952 10.566938 3.801985
4.883056 11.606835 18.760948
2.488028 11.788511 21.374369
18.463742 10.435644 3.654242
16.056525 10.618280 6.281037
4.724480 11.478046 18.646753
2.324157 11.660160 21.266025
18.334959 10.303763 3.505839
15.922392 10.486841 6.138545
4.565196 11.348683 18.532048
18.205599 10.171290 3.356770
-5.380446 15.717014 37.100962
7.363743 14.627703 22.903203
-5.229493 15.579853 36.679075
20.206140 13.529998 8.596035
7.542762 14.487666 22.449074
33.147886 12.423801 -5.821814
20.413655 13.387043 8.109176
-5.330315 15.334368 36.272554
-6.220464 15.401701 37.246359
33.384333 12.277888 -6.341895
7.496183 14.236561 21.980115
6.601061 14.304285 22.959391
-5.421601 15.213908 36.112357
-6.475799 15.293668 37.265665
20.422162 13.130239 7.576823
19.522017 13.198358 8.561627
7.431964 14.113287 21.788743
6.371864 14.193511 22.948545
-5.513277 15.092933 35.951476
-6.407203 15.160582 36.929475
-6.732214 15.185178 37.285053
33.448786 12.015302 -6.938615
32.543566 12.083822 -5.948228
20.385435 13.004111 7.353796
19.319373 13.084805 8.520158
7.367470 13.989485 21.596550
6.468529 14.057529 22.580068
6.141694 14.082268 22.937652
-5.605345 14.971441 35.789906
-6.664026 15.051576 36.948193
33.439982 11.886281 -7.193786
32.367896 11.967449 -6.020797
20.348550 12.877442 7.129809
19.444542 12.945885 8.118902
19.115866 12.970769 8.478513
7.302699 13.865151 21.403532
6.238066 13.945756 22.568369
33.431139 11.756702 -7.450060
32.522012 11.825549 -6.455334
32.191476 11.850580 -6.093676
20.311505 12.750226 6.904856
19.240859 12.831304 8.076310
-5.872462 14.733085 35.554182
-6.117838 14.751667 35.822661
-7.180947 14.832174 36.985867
33.422258 11.626563 -7.707442
32.345536 11.708120 -6.529303
7.090062 13.621106 21.105005
6.843301 13.639797 21.375009
5.774190 13.720778 22.544821
-6.211798 14.628661 35.659778
-7.441059 14.721772 37.004824
-7.604930 14.734185 37.184130
20.154212 12.500409 6.542548
19.906050 12.519211 6.814093
18.830875 12.600669 7.990578
6.776981 13.513908 21.180269
5.540764 13.607567 22.532971
5.375966 13.620053 22.713297
-6.141879 14.492678 35.316429
33.071609 11.389805 -7.861425
31.990307 11.471747 -6.678196
19.867807 12.390396 6.587001
18.624562 12.484609 7.947437
18.458828 12.497169 8.128794
6.875588 13.374953 20.803898
-7.882339 14.493316 36.952944
31.811544 11.352796 -6.753123
31.644862 11.365430 -6.570724
19.995554 12.248426 6.177097
5.153654 13.373415 22.418565
4.988155 13.385959 22.599671
-6.413625 14.250193 35.076621
18.292492 12.244678 7.769521
18.126048 12.257298 7.951667
6.659253 13.126663 20.500178
4.834457 13.265011 22.497116
31.535396 11.107002 -6.995551
31.367997 11.119697 -6.812355
19.835513 11.994247 5.808462
18.000276 12.133420 7.816893
4.763196 13.137237 22.303170
4.680092 13.143539 22.394117
-6.770579 14.011886 34.925399
31.270600 10.992847 -6.979856
17.957537 12.002664 7.590061
17.873957 12.009004 7.681532
6.357709 12.882529 20.285001
4.608339 13.015222 22.199524
31.256840 10.859065 -7.240092
31.172778 10.865443 -7.148090
19.590270 11.744203 5.528319
17.830848 11.877689 7.453909
4.285885 12.905339 22.278115
-7.130637 13.771506 34.772863
31.158772 10.731088 -7.409266
17.535720 11.764909 7.500907
6.053532 12.636264 20.067946
4.129315 12.782288 22.173965
30.891418 10.615366 -7.394367
19.342877 11.491966 5.245721
17.407554 11.638868 7.363966
4.055881 12.652337 21.977614
3.972059 12.658699 22.069359
-7.410275 13.522683 34.527530
30.792117 10.486292 -7.564621
17.363132 11.505874 7.134145
17.278825 11.512274 7.226424
5.830734 12.381458 19.756992
-7.425390 13.387915 34.266554
-7.592888 13.400632 34.449890
30.777175 10.350210 -7.828444
30.692378 10.356650 -7.735626
19.177840 11.231089 4.868103
5.844950 12.243618 19.462186
5.676484 12.256412 19.646588
3.571291 12.416285 21.950916
-7.692373 13.271672 34.280040
19.221859 11.090132 4.538930
19.052414 11.103003 4.724410
16.934991 11.263844 7.042205
5.605970 12.124402 19.443293
3.411770 12.291075 21.845130
-7.876411 13.148532 34.201513
30.406408 10.102113 -7.986677
19.011341 10.967899 4.487136
16.804365 11.135583 6.903041
5.450541 11.998235 19.331708
3.251546 12.165313 21.738876
-7.976963 13.018444 34.030363
18.884988 10.838661 4.341961
16.673161 11.006754 6.763261
5.379212 11.865066 19.126811
18.843358 10.702365 4.102778
5.222589 11.737764 19.014028
18.716068 10.571959 3.956099
5.065270 11.609895 18.900744
18.588210 10.440971 3.808766
2.518219 11.663152 21.402517
16.056682 10.492207 6.291827
4.834066 11.345939 18.579006
2.354215 11.534588 21.294092
18.416818 10.170686 3.417911
15.922335 10.360495 6.149114
4.674821 11.216335 18.463988
2.189479 11.405448 21.185182
18.287425 10.037913 3.268375
15.787385 10.228192 6.005759
-5.386311 15.582452 36.487037
-6.034419 15.631398 37.193802
7.449543 14.486233 22.230762
6.798310 14.535424 22.940953
-5.477120 15.462644 36.327700
20.374925 13.382369 7.875052
19.720539 13.431807 8.588699
7.385735 14.363676 22.040530
-6.137814 15.385352 36.788757
33.390775 12.270779 -6.581137
32.733208 12.320466 -5.864003
20.338497 13.257026 7.653497
6.749397 14.283836 22.473582
-6.475172 15.283101 36.896115
33.382114 12.142614 -6.834450
19.726874 13.174604 8.058139
6.438070 14.178902 22.551090
32.795569 12.057576 -6.458628
19.441951 13.066952 8.105375
-5.844241 14.978288 35.683533
-6.089879 14.996856 35.951436
-6.990444 15.064928 36.933630
32.537429 11.947169 -6.442092
7.127762 13.868183 21.271435
6.880926 13.886844 21.540651
5.975972 13.955261 22.527656
-5.937004 14.855902 35.520766
-7.249724 14.955146 36.952508
-7.413788 14.967549 37.131448
20.191216 12.750252 6.757733
19.943173 12.769008 7.028273
19.033790 12.837771 8.020133
7.062575 13.742978 21.077094
5.743444 13.842724 22.515865
5.578579 13.855191 22.695683
-7.427901 14.838679 36.881803
33.347093 11.624411 -7.858653
33.097831 11.643263 -7.586776
32.183979 11.712377 -6.590017
20.153998 12.622191 6.531374
18.828399 12.722445 7.977238
18.662724 12.734975 8.157943
5.592532 13.723459 22.413918
-7.853983 14.740405 37.080357
32.006115 11.594223 -6.664456
31.839625 11.606817 -6.482857
18.705141 12.600344 7.843610
5.192617 13.622467 22.582425
-6.300281 14.491820 35.118328
-6.548025 14.510560 35.388555
-7.951665 14.616735 36.919579
31.910910 11.469250 -6.830214
18.331776 12.496598 7.981637
6.782331 13.370388 20.579543
6.533369 13.389223 20.851106
5.122830 13.495940 22.389694
-6.477593 14.373586 35.043206
31.564483 11.362713 -6.723105
19.957975 12.240980 5.937371
19.707784 12.259912 6.210282
18.290283 12.367175 7.756504
6.632661 13.249310 20.472736
4.969600 13.375154 22.286817
31.551690 11.230357 -6.981099
19.836346 12.117022 5.798429
18.165059 12.243512 7.621530
4.732391 13.260152 22.274378
4.649076 13.266457 22.365261
-6.751401 14.129292 34.801321
-6.917630 14.141873 34.982650
31.454876 11.103777 -7.148625
17.955561 12.125649 7.577308
17.871833 12.131987 7.668644
6.414899 12.999255 20.166614
6.247847 13.011901 20.348845
4.577651 13.138331 22.170805
-7.014139 14.015807 34.815885
31.273494 10.983017 -7.225087
31.189349 10.989388 -7.133294
19.675440 11.861130 5.427157
19.507558 11.873840 5.610298
17.829064 12.000923 7.441357
6.179745 12.882917 20.149526
4.254890 13.028652 22.249340
31.175649 10.855345 -7.393878
19.468273 11.741900 5.377963
17.533834 11.888387 7.488286
4.098437 12.905798 22.145262
30.908355 10.739916 -7.379013
17.405863 11.762598 7.351548
4.025337 12.776043 21.949050
3.941301 12.782408 22.040730
-7.473874 13.646996 34.494130
30.809281 10.611152 -7.548879
17.361787 11.629860 7.122071
17.277331 11.636258 7.214211
5.805133 12.505328 19.730153
3.867696 12.652098 21.843859
30.794652 10.475390 -7.812098
30.709771 10.481822 -7.719493
19.180022 11.355416 4.859572
17.232875 11.502949 6.983927
-7.755659 13.396299 34.246652
30.694890 10.345474 -7.983669
5.580849 12.248693 19.416717
3.381163 12.415392 21.816660
-7.939674 13.273320 34.168129
19.014081 11.092765 4.479228
16.803322 11.260334 6.891316
5.425560 12.122740 19.305227
3.221063 12.289835 21.710483
18.887941 10.963797 4.334292
16.672322 11.131767 6.751747
3.145211 12.157283 21.511143
3.060255 12.163723 21.603837
16.626126 10.996155 6.518394
16.540742 11.002629 6.611560
5.198101 11.862701 18.987821
18.719592 10.697648 3.949071
5.040928 11.735052 18.874636
2.651173 11.916293 21.482233
18.591952 10.566938 3.801985
16.190062 10.749135 6.422895
4.883056 11.606835 18.760948
2.488028 11.788511 21.374369
18.463742 10.435644 3.654242
16.056525 10.618280 6.281037
2.324157 11.660160 21.266025
15.922392 10.486841 6.138545
4.651134 11.342161 18.438268
2.159553 11.531235 21.157198
18.291976 10.164734 3.262508
15.787657 10.354812 5.995414
-5.081228 15.818471 36.980544
7.661443 14.730794 22.819736
-5.413119 15.718266 37.086923
20.494728 13.635382 8.558229
7.355057 14.627956 22.896839
-5.261839 15.581039 36.664973
33.419599 12.532152 -5.805056
20.214221 13.529875 8.605635
7.534361 14.487893 22.442842
-5.271784 15.455452 36.417860
33.165348 12.423942 -5.787773
20.421945 13.386940 8.119144
7.551754 14.359519 22.164424
-5.362880 15.335457 36.258206
-5.930598 15.378359 36.877758
33.401896 12.278096 -6.307214
20.467068 13.255744 7.808979
7.487708 14.236757 21.973772
6.917147 14.279881 22.596443
33.475147 12.144040 -6.649575
20.430461 13.130176 7.586888
19.857032 13.173525 8.212706
-5.546239 15.093931 35.936850
-6.523563 15.167813 37.003464
-6.767861 15.186281 37.270081
33.466376 12.015630 -6.903552
32.890053 12.059207 -6.274558
7.358790 13.989652 21.590015
6.376552 14.063920 22.662020
6.131026 14.082485 22.929985
-5.638507 14.972392 35.775140
-5.965000 14.997078 36.131471
-6.781127 15.058786 37.022184
20.356774 12.877420 7.139840
19.369577 12.952077 8.217287
19.122811 12.970739 8.486611
7.293916 13.865304 21.396900
6.965779 13.890119 21.755036
6.145539 13.952150 22.650261
-5.731171 14.850331 35.612736
-7.039787 14.949296 37.040985
-7.203337 14.961664 37.219486
33.448722 11.757147 -7.414797
32.456519 11.832197 -6.331858
32.208502 11.850957 -6.061160
20.319693 12.750224 6.914870
19.989895 12.775170 7.274828
19.165505 12.837527 8.174607
7.228763 13.740420 21.202953
5.913540 13.839903 22.638452
5.749164 13.852336 22.817860
-5.906209 14.733946 35.539105
-7.299549 14.839338 37.059865
33.439837 11.627066 -7.672078
33.108363 11.652144 -7.310281
32.279785 11.714829 -6.405906
20.282451 12.622479 6.688928
18.960559 12.722486 8.131744
18.795350 12.734984 8.312067
7.080939 13.621230 21.098096
5.680548 13.727175 22.626592
-5.999848 14.610847 35.375495
-6.164145 14.623277 35.554821
-7.478299 14.722698 36.989192
-7.642541 14.735124 37.168459
33.430914 11.496421 -7.930476
32.102291 11.596957 -6.480272
31.936240 11.609522 -6.299027
20.162239 12.500446 6.552393
18.754733 12.606951 8.088698
7.015043 13.495279 20.902666
6.849914 13.507774 21.082906
5.529095 13.607719 22.524590
5.364020 13.620210 22.704771
-7.740114 14.611784 37.008042
-7.822410 14.618011 37.097868
31.924032 11.478576 -6.554959
20.124494 12.371606 6.324685
19.958524 12.384167 6.505848
18.630979 12.484640 7.954914
18.465064 12.497197 8.136017
5.294275 13.494007 22.512435
5.211561 13.500267 22.602720
-6.435847 14.381783 35.316309
-7.920582 14.494153 36.936954
31.828386 11.353373 -6.720987
31.661622 11.365996 -6.538953
18.423553 12.368093 7.911300
18.340417 12.374386 8.002048
6.633630 13.260567 20.780803
5.141333 13.373531 22.409746
31.648761 11.233952 -6.796519
31.565199 11.240278 -6.705303
19.798474 12.131170 6.139231
18.298545 12.244734 7.776551
4.987729 13.252533 22.306612
4.821593 13.265112 22.487966
-6.709906 14.138194 35.075728
31.552100 11.107671 -6.963794
18.172993 12.120839 7.641217
18.006005 12.133484 7.823505
6.415463 13.011208 20.476069
4.750210 13.137314 22.293906
4.666964 13.143618 22.384780
-6.806312 14.012461 34.909332
31.455016 10.980839 -7.131800
31.287169 10.993552 -6.948568
19.637026 11.875963 5.769411
17.963219 12.002741 7.596637
17.879545 12.009079 7.687981
6.347396 12.882552 20.277150
-6.986352 13.892482 34.833051
31.273401 10.859824 -7.208722
31.189296 10.866196 -7.116905
19.597716 11.744343 5.537496
6.195389 12.759668 20.168670
4.272077 12.905373 22.268329
19.474161 11.618516 5.396345
17.540926 11.765001 7.506895
4.115235 12.782297 22.163987
-7.265218 13.644621 34.588251
30.907787 10.616206 -7.363575
17.412614 11.638970 7.369785
5.973382 12.505919 19.858572
4.041673 12.652319 21.967515
-7.447446 13.523049 34.510766
30.808433 10.487178 -7.533936
19.309860 11.358799 5.019991
17.368142 11.505986 7.139922
5.819551 12.381398 19.748457
-7.546534 13.394581 34.341299
30.793483 10.351149 -7.797681
19.184852 11.231288 4.876764
5.749416 12.249932 19.545738
3.556232 12.416214 21.940283
-7.730183 13.271924 34.262930
19.144104 11.096783 4.640304
16.939506 11.263964 7.047380
5.594411 12.124296 19.434447
3.396429 12.290975 21.834299
30.422512 10.103127 -7.956506
19.018175 10.968126 4.495601
16.808728 11.135709 6.908040
3.320623 12.158758 21.635361
16.762516 11.000426 6.675111
5.138107 11.603211 18.798023
2.664846 11.790919 21.498749
18.680343 10.434734 3.723038
16.194066 10.623468 6.438056
4.980008 11.474730 18.683821
2.501275 11.662891 21.390600
18.551964 10.303153 3.574660
16.060158 10.492346 6.295795
2.336974 11.534291 21.281967
15.925649 10.360635 6.152896
-5.388930 15.585697 36.609567
7.461324 14.489866 22.388666
-5.397798 15.459866 36.362529
-6.129563 15.515065 37.157730
20.390104 13.387338 8.080862
7.479722 14.361323 22.110670
6.745043 14.416748 22.909051
-5.406703 15.333500 36.114443
-5.488187 15.339648 36.202992
-5.977068 15.376530 36.734262
-6.384442 15.407263 37.176959
33.398134 12.278052 -6.314643
20.436103 13.256052 7.771533
19.698487 13.311706 8.573120
7.498199 14.232233 21.831490
7.416390 14.238405 21.920393
6.925558 14.275439 22.453794
6.516557 14.306299 22.898265
-5.578959 15.218920 36.042778
-6.640397 15.299007 37.196269
33.472072 12.143993 -6.655686
32.731496 12.199877 -5.850869
20.482299 13.124207 7.460882
20.400162 13.130405 7.550143
19.907363 13.167591 8.085690
19.496725 13.198578 8.531950
7.352789 14.114965 21.729308
6.287105 14.195382 22.887434
-5.670117 15.097679 35.881882
-5.997423 15.122378 36.237580
-6.651987 15.171771 36.948924
-6.897433 15.190293 37.215661
33.546327 12.009360 -6.998190
33.463860 12.015583 -6.908568
32.969080 12.052924 -6.370859
32.556790 12.084040 -5.922797
20.364068 13.004221 7.327810
19.294106 13.084970 8.490605
7.288916 13.990998 21.537408
6.960299 14.015799 21.894537
6.303110 14.065397 22.608745
6.056681 14.083995 22.876556
-5.761664 14.975922 35.720302
-6.909597 15.062556 36.967834
33.455613 11.886624 -7.162532
32.381341 11.967709 -5.995032
20.327819 12.877497 7.104525
19.997879 12.902401 7.463097
19.338047 12.952204 8.180191
19.090626 12.970879 8.449084
7.224771 13.866502 21.344688
6.072226 13.953495 22.597253
-7.086138 14.946675 36.897532
-7.168299 14.952877 36.986824
-7.332619 14.965279 37.165403
33.447331 11.757112 -7.417586
33.116059 11.782119 -7.057559
32.453563 11.832130 -6.337557
32.205143 11.850882 -6.067574
20.291415 12.750230 6.880283
19.134223 12.837585 8.137920
5.922851 13.834890 22.496058
5.840359 13.841117 22.585711
5.675378 13.853571 22.765013
-6.028282 14.737061 35.484567
33.439013 11.627043 -7.673736
32.277140 11.714761 -6.410988
19.012355 12.716223 8.005452
18.929529 12.722476 8.095468
18.763882 12.734982 8.275498
7.012971 13.622149 21.046629
-6.121184 14.613749 35.321097
-7.606505 14.725887 36.935374
32.183122 11.590611 -6.575117
32.099961 11.596890 -6.484734
31.933642 11.609449 -6.303971
20.135118 12.500322 6.519132
6.947818 13.496058 20.851612
5.456493 13.608664 22.472443
-6.462591 14.508640 35.426576
-7.785671 14.608542 36.864552
-7.868355 14.614786 36.954416
20.098063 12.371419 6.292179
18.600686 12.484496 7.919616
6.633275 13.388235 20.926503
5.304834 13.488555 22.370330
5.221815 13.494824 22.460560
-6.556826 14.384308 35.262281
31.826833 11.353320 -6.723949
19.810723 12.260850 6.336098
18.476881 12.361590 7.785822
18.393524 12.367886 7.876421
6.567023 13.261096 20.730387
5.069326 13.374212 22.358202
31.731234 11.227584 -6.889816
31.647537 11.233906 -6.798847
19.772806 12.130873 6.107769
18.269006 12.244463 7.742246
4.916178 13.253079 22.255402
4.749430 13.265674 22.436640
-6.829754 14.140317 35.022026
31.551342 11.107641 -6.965235
18.143948 12.120507 7.607491
17.976519 12.133155 7.789472
6.350082 13.011478 20.426443
4.678814 13.137735 22.242973
31.454730 10.980827 -7.132345
31.286615 10.993529 -6.949615
19.612560 11.875562 5.739343
17.934451 12.002351 7.563340
4.524158 13.015565 22.139479
-7.105048 13.894210 34.779688
31.273456 10.859827 -7.208617
17.808123 11.877330 7.427610
6.131255 12.759688 20.119855
4.201002 12.905547 22.217955
31.175817 10.731920 -7.376986
19.450915 11.618022 5.367701
17.512728 11.764500 7.474463
-7.382740 13.645959 34.535238
30.908540 10.616244 -7.362159
5.910515 12.505698 19.810588
3.887585 12.658600 22.009505
-7.564564 13.524201 34.457942
19.287853 11.358226 4.992801
17.256571 11.511778 7.200836
5.757178 12.381063 19.700857
-7.662862 13.395536 34.288651
30.710376 10.357681 -7.701784
19.163368 11.230678 4.850225
5.687838 12.249479 19.498607
3.486777 12.415888 21.891238
-7.846096 13.272696 34.210476
19.123356 11.096142 4.614601
16.913169 11.263262 7.017198
5.533338 12.123733 19.387708
3.327469 12.290527 21.785610
30.425117 10.103291 -7.951625
18.997960 10.967454 4.470563
16.782924 11.134963 6.878474
3.252474 12.158185 21.587101
3.167460 12.164614 21.679517
16.737473 10.999641 6.646335
16.652105 11.006098 6.739138
5.307520 11.864130 19.071793
18.831085 10.701897 4.087536
5.151154 11.736697 18.959215
18.704205 10.571479 3.941370
4.994095 11.608700 18.846138
18.576762 10.440481 3.794554
2.434556 11.661862 21.343674
16.036877 10.491415 6.269221
4.763863 11.344489 18.524995
2.270782 11.533151 21.235418
18.406513 10.170195 3.405082
15.902933 10.359676 6.126971
-5.261802 15.581038 36.664989
7.526249 14.488112 22.436824
-5.271512 15.455442 36.417980
-6.080162 15.516565 37.301405
20.408876 13.387103 8.103431
7.543823 14.359718 22.158506
6.730926 14.421174 23.046596
-5.362307 15.335438 36.258458
-5.929575 15.378324 36.878197
33.387135 12.277921 -6.336362
20.454141 13.255873 7.793345
19.636956 13.317665 8.686146
7.480002 14.236935 21.968005
6.909749 14.280056 22.591024
-5.453490 15.214924 36.098257
-6.184363 15.270190 36.896759
-6.265563 15.276330 36.985472
-6.509153 15.294749 37.251603
33.460501 12.143815 -6.678680
32.638986 12.205948 -5.781123
20.417698 13.130272 7.571410
19.844431 13.173630 8.197741
7.415909 14.113627 21.776690
6.681181 14.169196 22.579427
6.599553 14.175370 22.668611
6.354677 14.193891 22.936153
-5.545061 15.093895 35.937372
-5.951979 15.124671 36.381956
-6.521596 15.167753 37.004299
-6.765694 15.186214 37.270991
33.451847 12.015359 -6.932514
32.875536 12.058956 -6.302839
20.381099 13.004134 7.348523
19.642479 13.060009 8.155536
19.560418 13.066216 8.245195
19.314246 13.084839 8.514162
7.351541 13.989792 21.584557
6.942472 14.020737 22.031503
6.369844 14.064055 22.657154
6.124456 14.082618 22.925264
-5.637023 14.972349 35.775801
-5.963253 14.997028 36.132237
-6.778713 15.058716 37.023206
33.443155 11.886351 -7.187440
32.700605 11.942535 -6.376110
32.618108 11.948777 -6.285971
32.370626 11.967502 -6.015565
20.344343 12.877453 7.124678
19.933103 12.908569 7.574011
19.357435 12.952126 8.203001
19.110744 12.970791 8.472542
7.286897 13.865425 21.391599
6.958939 13.890240 21.749935
6.139159 13.952267 22.645648
-6.955212 14.943033 36.952915
-7.036921 14.949216 37.042192
-7.200335 14.961580 37.220742
33.434427 11.756785 -7.443466
33.020993 11.788074 -6.991724
32.442256 11.831872 -6.359362
32.194251 11.850641 -6.088376
20.307429 12.750227 6.899870
19.977726 12.775178 7.260122
19.153585 12.837549 8.160628
5.989635 13.833787 22.544339
5.907492 13.840003 22.634094
5.743212 13.852436 22.813597
-5.904040 14.733891 35.540074
33.425660 11.626660 -7.700598
33.094196 11.651751 -7.338410
32.265651 11.714467 -6.433066
19.031445 12.716231 8.027837
18.948864 12.722482 8.118073
18.783708 12.734984 8.298538
7.074429 13.621318 21.093167
-5.997367 14.610788 35.376607
-7.474585 14.722606 36.990751
32.171312 11.590273 -6.597809
32.088289 11.596559 -6.507087
31.922248 11.609130 -6.325651
20.150337 12.500392 6.537796
7.008769 13.495352 20.897901
5.523676 13.607789 22.520698
-6.337864 14.505837 35.482084
-7.735935 14.611686 37.009790
-7.818160 14.617912 37.099639
20.112763 12.371523 6.310257
18.619718 12.484586 7.941792
6.694738 13.387627 20.972888
5.289198 13.494064 22.508801
5.206534 13.500324 22.599132
-6.267664 14.369229 35.137635
-6.432528 14.381714 35.317791
-7.916004 14.494052 36.938868
31.814648 11.352902 -6.747200
19.825608 12.260986 6.354291
18.412525 12.368017 7.898491
18.329418 12.374312 7.989310
6.793719 13.248058 20.595394
6.627972 13.260612 20.776520
5.136554 13.373576 22.406325
4.970875 13.386125 22.587378
-6.444994 14.250795 35.062512
31.635161 11.233448 -6.822379
31.551606 11.239778 -6.731068
19.953802 12.118415 5.943263
19.787164 12.131039 6.125369
18.287726 12.244635 7.763987
18.121156 12.257254 7.946019
6.643968 13.126753 20.488539
4.817216 13.265146 22.484853
-6.705874 14.138122 35.077535
31.538633 11.107132 -6.989395
31.371163 11.119822 -6.806375
19.832052 11.994198 5.804195
17.995455 12.133366 7.811329
6.410337 13.011229 20.472178
4.746086 13.137338 22.290964
31.273852 10.992985 -6.973716
19.626093 11.875783 5.755975
17.952853 12.002600 7.584639
-6.981596 13.892413 34.835190
31.260214 10.859220 -7.233701
6.190803 12.759670 20.165180
4.268673 12.905382 22.265916
19.463611 11.618292 5.383346
17.531055 11.764826 7.495541
4.112144 12.782299 22.161797
-7.259725 13.644558 34.590728
30.894894 10.615544 -7.387828
17.402963 11.638776 7.358687
5.969345 12.505905 19.855491
30.795682 10.486486 -7.557916
19.299700 11.358534 5.007437
-7.456429 13.388168 34.252456
-7.540294 13.394530 34.344123
5.830259 12.243509 19.450906
5.745936 12.249907 19.543075
3.554153 12.416204 21.938815
-7.723527 13.271880 34.265942
19.219123 11.090047 4.535530
19.134339 11.096481 4.628207
16.930563 11.263726 7.037131
5.591240 12.124267 19.432020
3.394676 12.290964 21.833060
30.410207 10.102352 -7.979559
19.008625 10.967809 4.483773
16.800015 11.135457 6.898056
3.234495 12.165171 21.726840
16.668888 11.006621 6.758366
5.364672 11.864877 19.115653
18.840867 10.702270 4.099684
5.208102 11.737547 19.002912
18.713660 10.571861 3.953110
5.050835 11.609653 18.889670
2.664482 11.790914 21.498494
18.585886 10.440871 3.805882
16.186330 10.623176 6.429224
4.978310 11.474698 18.682515
2.501253 11.662890 21.390584
18.543456 10.302767 3.564067
16.052663 10.492046 6.287240
4.819828 11.345645 18.568052
2.422876 11.527793 21.188630
2.337296 11.534296 21.282194
18.414727 10.170587 3.415307
16.004453 10.353788 6.050534
15.918398 10.360329 6.144621
2.172607 11.405127 21.173319
15.783531 10.228021 6.001361
-5.229390 15.711221 37.165867
7.481571 14.624275 22.989538
-5.078110 15.574305 36.745071
20.293836 13.528666 8.700228
7.660767 14.484478 22.536605
-5.087255 15.448988 36.498885
33.208619 12.424290 -5.703420
20.501390 13.385947 8.214657
7.678720 14.356341 22.259174
-5.177142 15.329246 36.340047
-5.742022 15.371995 36.958753
-6.064769 15.396420 37.312253
33.444980 12.278607 -6.222138
20.546874 13.254948 7.905488
7.615572 14.233801 22.069474
7.047382 14.276811 22.691827
6.722744 14.301385 23.047412
33.518439 12.144704 -6.563547
20.510898 13.129569 7.684436
19.939362 13.172843 8.310475
19.612813 13.197568 8.668165
-5.358063 15.088237 36.020347
-5.682225 15.112781 36.375422
-6.249435 15.155727 36.996723
-6.330458 15.161862 37.085472
33.510074 12.016444 -6.816450
32.935158 12.059985 -6.186686
32.606677 12.084862 -5.826867
7.488468 13.987154 21.687648
7.162398 14.011849 22.044825
6.591850 14.055058 22.669804
6.510351 14.061231 22.759079
-5.449101 14.966963 35.859476
-5.773948 14.991565 36.215315
-6.585933 15.053059 37.104763
20.438483 12.877202 7.239494
20.110486 12.902049 7.598795
19.536564 12.945524 8.227491
19.454583 12.951735 8.317297
7.424509 13.863040 21.495512
7.097745 13.887793 21.853461
6.280973 13.949666 22.748186
-6.842485 14.943798 37.124136
33.493238 11.758272 -7.325517
33.163292 11.783273 -6.964068
32.585961 11.827018 -6.331615
32.503493 11.833266 -6.241273
20.402043 12.750206 7.015591
20.073344 12.775112 7.375674
19.251731 12.837367 8.275732
6.050623 13.837629 22.737247
-5.713904 14.729040 35.625020
33.484766 11.628352 -7.581695
33.154109 11.653413 -7.219456
32.327605 11.716053 -6.314008
19.048017 12.722513 8.233990
7.213724 13.619433 21.198644
-5.806287 14.606219 35.462272
-6.051475 14.624802 35.730879
-7.277153 14.717696 37.073628
32.150967 11.598340 -6.387053
20.246161 12.500830 6.655309
7.148762 13.493729 21.004219
6.902119 13.512427 21.274431
5.669167 13.605896 22.625197
-7.536808 14.607026 37.093059
20.209070 12.372201 6.428697
19.960956 12.391015 6.700530
18.720651 12.485065 8.059399
5.436039 13.492409 22.613926
-6.238483 14.377664 35.404449
-7.715528 14.489665 37.022690
33.126322 11.260455 -7.992261
31.878586 11.355092 -6.625201
18.514491 12.368719 8.016926
6.770293 13.259481 20.884243
5.284444 13.372179 22.512186
31.699843 11.235844 -6.699386
19.885218 12.132175 6.245554
18.390470 12.245575 7.883306
4.966790 13.263979 22.591240
-6.344676 14.122137 34.984884
-6.509532 14.134644 35.165512
31.603853 11.109744 -6.865406
18.099514 12.134527 7.931434
6.720246 12.998049 20.399811
6.554403 13.010634 20.581527
4.896412 13.136451 22.398204
4.813534 13.142740 22.489015
31.340045 10.995804 -6.848716
19.892242 11.864747 5.695207
19.725401 11.877411 5.878023
18.057438 12.004018 7.705693
17.974061 12.010347 7.797053
-6.782928 13.889522 34.924507
31.326738 10.862268 -7.107694
31.242858 10.868637 -7.015778
6.336638 12.759624 20.276181
4.421797 12.905007 22.374442
19.564190 11.620426 5.507284
17.637782 11.766724 7.618298
4.266362 12.782201 22.271083
-7.058699 13.642270 34.681408
30.962967 10.619037 -7.259773
17.510504 11.640932 7.482358
6.116972 12.506424 19.968171
-7.239142 13.521000 34.604716
30.864318 10.490212 -7.428829
19.401567 11.361188 5.133298
5.964510 12.382178 19.859084
19.277556 11.233920 4.991283
3.712033 12.416946 22.050299
-7.518716 13.270516 34.358625
17.040859 11.266665 7.163529
5.741764 12.125654 19.547215
3.553684 12.291998 21.945327
30.480786 10.106796 -7.847328
19.112593 10.971265 4.612550
16.911151 11.138669 7.025396
3.478955 12.160090 21.747483
3.394642 12.166502 21.839893
16.865701 11.003657 6.793675
16.780872 11.010109 6.886654
-7.984803 12.893856 34.031582
5.361584 11.739839 19.120682
18.819775 10.576154 4.084872
5.205428 11.612249 19.008274
18.692819 10.445448 3.938638
2.666380 11.665437 21.506724
16.168388 10.496670 6.419332
4.976333 11.348877 18.688459
2.588844 11.530670 21.305710
2.503607 11.537161 21.399150
18.523034 10.175750 3.550127
16.120769 10.358718 6.183675
16.035004 10.365250 6.277697
4.818277 11.219566 18.574339
18.394563 10.043272 3.401716
4.659516 11.089678 18.459711
18.265517 9.910201 3.252642
-5.506938 15.590022 36.558121
7.334508 14.493291 22.294599
-6.248314 15.519269 37.107279
20.265744 13.388892 7.931347
6.617087 14.420024 22.816193
-5.609088 15.343691 36.149719
-6.178880 15.386737 36.771119
33.287712 12.276743 -6.532687
19.572631 13.313077 8.424975
7.287071 14.241395 21.823602
6.714514 14.284658 22.448033
-5.701279 15.222816 35.988691
-6.516978 15.284451 36.878292
32.619268 12.198347 -6.067430
20.273788 13.131358 7.396885
19.698441 13.174840 8.024374
7.222212 14.117732 21.631287
6.402546 14.179678 22.525237
-6.693039 15.169378 36.807637
-6.774774 15.175556 36.896779
-7.019970 15.194086 37.164196
33.352021 12.013499 -7.131496
32.773859 12.057202 -6.500921
20.236649 13.004872 7.172846
19.412980 13.067131 8.071184
6.253518 14.061837 22.423613
6.171385 14.068045 22.513192
5.924995 14.086669 22.781918
-5.886849 14.979510 35.664561
-6.214540 15.004279 36.021958
-7.033668 15.066196 36.915344
33.342995 11.884152 -7.387702
32.515288 11.946728 -6.484937
19.291372 12.946485 7.938156
19.208837 12.952724 8.028175
18.961241 12.971443 8.298224
7.091656 13.868809 21.244171
6.762365 13.893704 21.603323
5.939237 13.955934 22.501095
-7.293666 14.956370 36.933989
-7.457820 14.968780 37.113028
32.421491 11.823240 -6.649810
32.338551 11.829511 -6.559347
32.089738 11.848325 -6.287964
20.161889 12.750258 6.721863
19.830983 12.775280 7.082786
19.003818 12.837827 7.984983
5.706094 13.843344 22.488946
5.541137 13.855817 22.668867
-6.156295 14.740327 35.427376
-7.554776 14.846074 36.952713
33.324826 11.623774 -7.903448
32.992290 11.648924 -7.540739
32.161052 11.711790 -6.634076
18.797919 12.722435 7.941604
18.632151 12.734972 8.122413
6.877291 13.623985 20.943888
5.471951 13.730270 22.476746
-6.250663 14.616845 35.263050
-7.734578 14.729072 36.881612
-7.899429 14.741540 37.061421
31.982789 11.593560 -6.709128
31.816203 11.606161 -6.527423
20.003393 12.499719 6.357593
18.591132 12.606547 7.898039
6.810841 13.497645 20.747584
5.319633 13.610445 22.374143
5.153972 13.622976 22.554841
-6.593324 14.511578 35.368395
-7.997758 14.617814 36.900304
31.803755 11.474820 -6.784505
19.965262 12.370484 6.128858
18.466694 12.483861 7.763488
18.300215 12.496456 7.945082
6.494998 13.389603 20.822148
5.083646 13.496381 22.361642
-6.523436 14.374537 35.022584
31.707598 11.349236 -6.951458
31.540295 11.361896 -6.768959
19.676627 12.259629 6.172200
18.258295 12.366955 7.719349
6.593857 13.249612 20.443184
4.929827 13.375530 22.258346
-6.785187 14.262014 35.037351
31.527189 11.229449 -7.027688
19.804871 12.116649 5.759617
18.132592 12.243215 7.583825
6.359564 13.134252 20.426448
4.608609 13.266773 22.336479
-6.964909 14.142711 34.961465
31.430009 11.102781 -7.195900
19.598435 11.998415 5.710926
17.838782 12.131619 7.630496
6.207828 13.012066 20.318470
4.536632 13.138573 22.141543
31.164010 10.988309 -7.181145
19.475091 11.873308 5.570397
17.795575 12.000469 7.402595
4.380614 13.016151 22.037091
-7.243179 13.896220 34.717586
31.149989 10.854169 -7.442482
17.668034 11.875114 7.265488
5.986302 12.759734 20.009526
4.056100 12.905902 22.115256
31.051340 10.725843 -7.612713
19.311135 11.615057 5.195456
17.371281 11.761983 7.311772
3.898346 12.782435 22.010290
-7.523892 13.647566 34.471567
30.782759 10.609791 -7.598772
17.242247 11.635554 7.173865
5.762826 12.505179 19.697861
3.824172 12.652042 21.812924
-7.707208 13.525603 34.393606
30.682865 10.480361 -7.770096
19.145730 11.354523 4.817203
17.197339 11.502151 6.942945
5.608102 12.380261 19.587088
-7.807078 13.396721 34.223380
19.020020 11.226608 4.673144
5.537372 12.248374 19.383440
3.336271 12.415181 21.784960
18.978857 11.091676 4.435591
16.766652 11.259357 6.849292
3.175532 12.289539 21.678337
16.635132 11.130692 6.709135
5.309916 11.989286 19.066225
18.810496 10.826486 4.050577
4.922109 11.599558 18.631798
4.836492 11.606053 18.725224
18.512093 10.427501 3.513529
18.426039 10.434030 3.607434
2.275293 11.659406 21.231658
15.882477 10.485246 6.092984
4.603336 11.341174 18.401495
2.110017 11.530382 21.122362
18.253290 10.162890 3.214351
15.747195 10.353104 5.949236
-5.569860 15.846564 37.137904
7.197836 14.755959 22.922766
-5.337458 15.703341 36.627576
20.062030 13.657112 8.600190
7.458676 14.609842 22.379827
-6.155863 15.639010 37.265023
33.023822 12.549929 -5.831048
20.351733 13.508060 8.024160
6.663120 14.543051 22.990798
-5.437276 15.457958 36.220938
-5.761602 15.482480 36.575543
-6.004828 15.500870 36.841478
33.342819 12.397902 -6.440657
19.579397 13.438774 8.608234
7.413024 14.358868 21.910916
7.086932 14.383529 22.267464
6.842381 14.402023 22.534855
-5.934390 15.368279 36.504945
-6.340605 15.399000 36.949099
-6.584314 15.417430 37.215570
32.594080 12.326084 -5.883907
20.361074 13.251418 7.492041
20.033198 13.276219 7.850550
19.787310 13.294819 8.119412
6.940726 14.266565 22.166264
6.532294 14.297460 22.612857
6.287255 14.315995 22.880790
-5.619375 15.216641 35.899868
-5.945072 15.241278 36.255995
-6.433566 15.278229 36.790130
-6.596384 15.290545 36.968160
-6.840598 15.309018 37.235191
33.407993 12.135511 -7.036936
33.078316 12.160454 -6.676446
32.831077 12.179160 -6.406098
19.913986 13.156453 7.718284
19.503314 13.187524 8.167339
19.256932 13.206165 8.436749
7.285107 14.111940 21.527517
6.957628 14.136717 21.885603
6.466462 14.173878 22.422676
6.302754 14.186264 22.601685
6.057204 14.204842 22.870185
-5.711006 15.095211 35.738306
-6.853242 15.181632 36.987301
-7.016392 15.193975 37.165699
32.986515 12.037846 -6.840250
32.573582 12.069095 -6.388709
32.325844 12.087843 -6.117807
20.288171 12.998799 7.045369
19.958893 13.023717 7.405434
19.465029 13.061091 7.945474
19.300421 13.073548 8.125472
19.053523 13.092232 8.395455
7.220737 13.987683 21.334587
6.072241 14.074596 22.590466
5.908197 14.087010 22.769847
-7.111187 15.072258 37.006523
-7.274676 15.084630 37.185298
33.390952 11.877122 -7.547838
33.059857 11.902183 -7.185775
32.563267 11.939771 -6.642738
32.397751 11.952300 -6.461741
32.149491 11.971091 -6.190260
20.251484 12.871676 6.820594
19.096665 12.959087 8.083427
18.931718 12.971572 8.263801
5.840749 13.962455 22.579199
5.676363 13.974898 22.758961
-5.977393 14.856995 35.502719
-6.141281 14.869400 35.681937
-7.370225 14.962421 37.025826
33.382376 11.747092 -7.804942
32.221170 11.835006 -6.535086
32.055312 11.847562 -6.353708
18.892040 12.844138 8.041203
18.726746 12.856652 8.221963
7.008771 13.743806 21.036346
6.843981 13.756282 21.216556
5.608273 13.849836 22.567885
-6.070381 14.734013 35.339268
-7.548274 14.845903 36.955442
-7.712450 14.858332 37.134979
32.043833 11.717210 -6.608744
31.877624 11.729796 -6.426977
20.094783 12.622058 6.458744
19.929081 12.634606 6.639956
18.686541 12.728698 7.998799
6.943392 13.617955 20.841114
5.457347 13.730487 22.466254
5.292265 13.742988 22.646787
-6.246064 14.616735 35.265112
-6.410650 14.629198 35.445103
-7.809348 14.735115 36.974719
31.865736 11.598909 -6.682718
20.057441 12.493298 6.231246
18.563162 12.606478 7.865443
18.397166 12.619051 8.046981
6.794980 13.497829 20.735538
6.629484 13.510364 20.916530
5.223055 13.616890 22.454650
-6.504969 14.505200 35.280828
-7.989100 14.617611 36.903925
31.770334 11.473777 -6.848288
31.603414 11.486422 -6.665733
19.936728 12.370283 6.093766
19.770313 12.382891 6.275769
18.356074 12.490032 7.822479
6.563004 13.383468 20.720200
5.070652 13.496528 22.352340
31.590879 11.354441 -6.923097
19.732106 12.253056 6.046893
18.231449 12.366770 7.688167
4.834523 13.381940 22.340441
4.751456 13.388235 22.431292
-6.777654 14.261869 35.040727
31.494469 11.228237 -7.089905
18.022753 12.249305 7.644636
17.939222 12.255636 7.735996
6.345895 13.134334 20.416071
4.680624 13.260551 22.237443
31.313639 11.107853 -7.165561
31.229641 11.114221 -7.073686
19.571443 11.998036 5.677747
17.896865 12.124987 7.509357
4.526057 13.138636 22.133999
-7.052703 14.016428 34.798545
31.216206 10.980564 -7.333621
17.770430 12.000128 7.373490
6.126896 12.883032 20.109294
4.287217 13.022531 22.121551
4.203616 13.028870 22.212995
31.118347 10.852720 -7.502416
19.409377 11.740788 5.305376
17.559372 11.881102 7.328993
17.475302 11.887478 7.420953
4.047343 12.905923 22.109050
-7.330147 13.768850 34.554253
30.935515 10.730730 -7.579465
30.850970 10.737143 -7.486984
17.347397 11.761558 7.284302
5.905982 12.629532 19.799836
3.890389 12.782440 22.004651
30.751884 10.608207 -7.656850
19.245888 11.481282 4.929736
17.218933 11.635087 7.147054
-7.610018 13.519107 34.307825
30.652363 10.478705 -7.827463
5.683128 12.373807 19.487660
3.490095 12.540253 21.886730
-7.792914 13.396605 34.229791
19.080958 11.219488 4.550785
16.875508 11.386915 6.963519
5.528688 12.248310 19.376793
3.330887 12.415156 21.781158
-7.976611 13.273566 34.151414
18.955429 11.090952 4.406568
16.745156 11.258784 6.824658
5.373568 12.122260 19.265438
18.829346 10.961849 4.261715
5.302690 11.989205 19.060679
18.788113 10.825685 4.022775
4.989387 11.734282 18.835088
2.601759 11.915709 21.447468
18.533518 10.564574 3.729428
16.132221 10.747083 6.356852
2.438816 11.787841 21.339751
15.998764 10.616102 6.215096
4.440435 11.211056 18.283689
18.104027 10.028739 3.040122
-6.479357 15.882867 36.748496
6.759190 14.769553 22.602313
-6.735127 15.775041 36.767675
19.967610 13.658772 8.488323
6.531459 14.659517 22.591820
33.146005 12.550517 -5.593584
19.767791 13.546536 8.448294
-6.321135 15.488879 35.831434
32.973973 12.436091 -5.663016
6.997865 14.369235 21.600140
-6.408945 15.366971 35.671222
-7.255027 15.429936 36.559225
20.286370 13.252155 7.401429
6.937702 14.245152 21.410679
6.095292 14.307818 22.294777
-6.497119 15.244557 35.510345
-6.836221 15.269783 35.866227
-6.921004 15.276090 35.955207
-7.514588 15.320246 36.578165
33.544485 12.137630 -6.764810
20.253728 13.125906 7.182853
19.414976 13.188274 8.063061
6.877290 14.120554 21.220432
6.539663 14.145659 21.574746
6.455248 14.151936 21.663333
5.864247 14.195882 22.283545
-6.585660 15.121635 35.348799
-6.925474 15.146903 35.705408
-7.775250 15.210091 36.597184
33.539238 12.009226 -7.012367
32.704129 12.071297 -6.136034
20.220951 12.999135 6.963372
19.884793 13.024121 7.316124
19.800746 13.030368 7.404320
19.212316 13.074104 8.021798
6.816627 13.995439 21.029395
6.478294 14.020586 21.384429
5.632223 14.083472 22.272267
-7.015099 15.023511 35.543919
-7.951840 15.093136 36.526901
33.533969 11.880291 -7.260948
33.199275 11.905158 -6.909752
33.115593 11.911375 -6.821945
32.529724 11.954902 -6.207191
20.188037 12.871838 6.742981
19.851180 12.896865 7.096446
19.008798 12.959450 7.980361
6.416669 13.894993 21.193320
5.484020 13.964284 22.171952
5.399213 13.970585 22.260940
5.229589 13.983188 22.438928
-6.849158 14.880588 35.113196
33.528679 11.750822 -7.510559
33.193291 11.775730 -7.158656
32.354583 11.838016 -6.278649
19.817427 12.769080 6.875855
18.888853 12.838040 7.850153
18.804417 12.844311 7.938747
18.635534 12.856853 8.115946
6.609608 13.749951 20.734046
-7.195475 14.775177 35.218912
33.187281 11.645764 -7.408593
32.262766 11.714393 -6.438611
32.178699 11.720634 -6.350409
32.010554 11.733116 -6.173995
20.037238 12.621930 6.388163
6.292647 13.642230 20.808707
5.015393 13.737044 22.148775
4.845034 13.749691 22.327513
-7.114877 14.637509 34.875607
-7.286231 14.650229 35.055387
33.433841 11.496515 -7.924571
19.749499 12.511910 6.431910
18.477849 12.606268 7.766019
18.308237 12.618853 7.943962
6.400847 13.502396 20.436211
6.230246 13.515055 20.615191
4.779578 13.622696 22.137113
-7.205650 14.512015 34.711023
-7.377367 14.524756 34.891175
33.175187 11.384207 -7.911595
31.909119 11.478111 -6.583420
31.740252 11.490635 -6.406268
19.885171 12.369920 6.030362
19.715321 12.382518 6.208544
18.271031 12.489640 7.723683
6.338545 13.374666 20.241516
6.167584 13.387346 20.420864
4.628303 13.501513 22.035654
-7.382845 14.392373 34.636007
31.731165 11.359214 -6.656287
19.851208 12.239964 5.805695
19.681000 12.252583 5.984242
18.148501 12.366199 7.591821
6.190321 13.252749 20.135859
4.304913 13.392528 22.113637
-7.647024 14.278615 34.651126
31.637248 11.233525 -6.818411
19.731820 12.115783 5.669539
17.854737 12.254885 7.638467
5.955617 13.136674 20.119801
4.237899 13.263967 21.921565
4.151976 13.270334 22.011693
31.372972 11.119893 -6.802957
19.526456 11.997404 5.622450
17.816338 12.124078 7.416134
17.730795 12.130414 7.505857
-7.918979 14.030377 34.409032
31.363055 10.986852 -7.055409
31.277891 10.993157 -6.966089
5.741847 12.883870 19.816176
3.757840 13.030768 21.897008
19.370599 11.740056 5.257583
17.395407 11.886237 7.329044
3.602744 12.907011 21.793942
31.000977 10.744391 -7.204740
17.269684 11.760175 7.194918
5.526251 12.628906 19.509957
3.446983 12.782722 21.690433
30.904488 10.616036 -7.369780
19.213412 11.480512 4.889603
17.143421 11.633573 7.060216
5.374370 12.503814 19.401365
30.807587 10.487132 -7.535527
19.091117 11.353100 4.749727
5.308805 12.371755 19.201111
3.046382 12.538971 21.573364
19.054877 11.218743 4.518469
16.802593 11.385136 6.879946
5.155801 12.245569 19.091384
2.888405 12.413078 21.468705
30.526249 10.234031 -7.778701
18.931715 11.090219 4.377191
16.674502 11.256901 6.743689
5.002134 12.118837 18.981182
2.729743 12.286640 21.363593
30.427903 10.103466 -7.946405
18.808021 10.961140 4.235302
16.545856 11.128112 6.606843
4.935344 11.985094 18.778726
18.770938 10.825071 4.001442
4.780533 11.857247 18.667368
18.646360 10.694858 3.858123
4.625048 11.728843 18.555524
2.161575 11.910509 21.137782
18.521239 10.564077 3.714181
16.068925 10.744838 6.284580
1.999934 11.781864 21.031025
15.937832 10.613804 6.145534
4.400354 11.463842 18.237801
1.837586 11.652657 20.923801
18.357274 10.294327 3.332270
15.806165 10.482196 6.005880
4.084983 11.203051 18.010263
18.103571 10.028716 3.039554
-6.382294 15.996770 36.661646
6.897212 14.882039 22.547709
-6.299639 15.864050 36.328463
20.129437 13.771276 8.484023
7.006139 14.747337 22.187042
-6.301197 15.737087 36.082227
33.314635 12.664461 -5.529680
20.264449 13.634609 8.096069
7.031430 14.618349 21.912714
-6.302761 15.609609 35.834994
-6.811132 15.647402 36.365786
33.475545 12.525843 -5.944725
20.316397 13.503610 7.793852
7.056823 14.488838 21.637277
6.551300 14.526400 22.165059
-6.389222 15.487922 35.675385
-7.153420 15.544705 36.473232
-7.493170 15.569949 36.827942
33.553961 12.392849 -6.274631
20.368555 13.372082 7.490415
19.865864 13.409415 8.015205
6.997906 14.365073 21.448849
6.237999 14.421508 22.242162
5.900156 14.446599 22.594857
-6.476039 15.365735 35.515119
-7.497166 15.441570 36.581136
33.632692 12.259318 -6.605866
33.132815 12.296424 -6.084050
20.336985 13.246253 7.273375
19.581342 13.302344 8.062181
19.245396 13.327281 8.412872
6.938746 14.240798 21.259647
5.923364 14.316170 22.319593
-6.563214 15.243043 35.354192
-7.671771 15.325331 36.511403
33.628273 12.131442 -6.851312
