ply
format ascii 1.0
comment made by patoriko hoffmann
element vertex 1605
property double x
property double y
property double z
end_header
13.749531 17.035177 17.149846
13.664688 17.041787 17.234354
17.621185 16.613857 13.099681
17.536911 16.620411 13.183605
16.524434 16.699160 14.191871
16.439962 16.705731 14.275992
16.355474 16.712302 14.360128
16.270971 16.718874 14.444280
16.186453 16.725448 14.528447
16.101919 16.732023 14.612629
16.017370 16.738599 14.696826
14.238299 16.876973 16.468500
14.153412 16.883575 16.553034
14.068510 16.890179 16.637583
13.983592 16.896784 16.722148
13.898659 16.903390 16.806727
13.813710 16.909997 16.891323
13.728746 16.916605 16.975933
13.643767 16.923215 17.060559
13.558772 16.929826 17.145201
13.473762 16.936438 17.229857
13.388736 16.943051 17.314530
13.303695 16.949665 17.399217
13.218639 16.956281 17.483920
13.133566 16.962898 17.568638
13.048479 16.969516 17.653372
12.963376 16.976135 17.738121
12.878258 16.982755 17.822886
12.793124 16.989377 17.907665
12.707974 16.996000 17.992461
12.622809 17.002624 18.077271
11.770308 17.068930 18.926228
11.684973 17.075568 19.011208
15.322163 16.672310 15.194252
15.237340 16.678897 15.278704
15.152502 16.685484 15.363172
15.067649 16.692073 15.447655
14.982780 16.698663 15.532153
14.897896 16.705255 15.616666
14.812996 16.711847 15.701195
12.685482 16.877048 17.819419
12.600180 16.883672 17.904348
12.514862 16.890297 17.989293
12.429529 16.896923 18.074254
12.344180 16.903550 18.159230
12.258816 16.910179 18.244221
12.173437 16.916809 18.329228
12.088041 16.923439 18.414250
11.917204 16.936705 18.584342
11.831762 16.943340 18.669410
11.746304 16.949975 18.754495
11.660831 16.956612 18.839595
11.575342 16.963250 18.924710
11.489838 16.969890 19.009841
11.404318 16.976530 19.094988
11.318783 16.983172 19.180150
11.233232 16.989815 19.265327
11.147665 16.996460 19.350520
15.048918 16.572754 15.270746
14.283316 16.632104 16.032844
14.198171 16.638705 16.117599
14.113011 16.645307 16.202369
14.027836 16.651909 16.287155
13.942645 16.658513 16.371956
13.857439 16.665119 16.456772
13.772217 16.671725 16.541604
13.686980 16.678333 16.626451
11.636613 16.837279 18.667435
11.550986 16.843916 18.752670
11.465343 16.850556 18.837921
11.379685 16.857196 18.923187
11.294011 16.863837 19.008469
11.208322 16.870480 19.093766
11.122616 16.877124 19.179079
11.036896 16.883769 19.264408
10.951159 16.890415 19.349752
10.865407 16.897063 19.435112
10.779639 16.903712 19.520487
10.693856 16.910362 19.605878
10.608056 16.917013 19.691285
10.522242 16.923665 19.776707
10.436411 16.930319 19.862145
10.350565 16.936974 19.947598
10.264703 16.943630 20.033067
10.178825 16.950287 20.118552
10.092932 16.956946 20.204052
10.007023 16.963605 20.289568
13.067936 16.604913 17.046075
12.982437 16.611530 17.131165
12.896921 16.618148 17.216271
12.811391 16.624767 17.301393
12.725844 16.631388 17.386530
12.640282 16.638009 17.471682
10.410170 16.810600 19.691121
10.324184 16.817255 19.776695
10.238183 16.823910 19.862285
10.152166 16.830567 19.947890
10.066133 16.837225 20.033511
9.980084 16.843885 20.119148
9.894020 16.850545 20.204801
9.807940 16.857207 20.290469
9.721844 16.863870 20.376153
9.635732 16.870535 20.461852
9.549605 16.877200 20.547567
9.463461 16.883867 20.633298
9.377302 16.890535 20.719045
12.017231 16.564302 17.894326
11.931405 16.570933 17.979723
11.845564 16.577565 18.065136
11.759706 16.584198 18.150564
11.673833 16.590833 18.236008
11.587944 16.597469 18.321468
11.502039 16.604106 18.406944
11.416119 16.610744 18.492435
9.435595 16.763761 20.463062
9.349296 16.770429 20.548930
9.262981 16.777098 20.634814
9.176650 16.783768 20.720714
9.090303 16.790439 20.806629
11.133114 16.510184 18.575793
10.874697 16.530116 18.832864
10.702339 16.543410 19.004324
10.616137 16.550059 19.090077
10.529919 16.556709 19.175846
10.443685 16.563360 19.261631
10.357435 16.570013 19.347432
10.098591 16.589977 19.604928
10.012277 16.596635 19.690792
9.925948 16.603293 19.776671
10.503706 16.435838 19.002932
9.985220 16.475761 19.518608
9.898750 16.482419 19.604609
9.812264 16.489078 19.690627
9.725762 16.495739 19.776660
9.639244 16.502401 19.862708
9.552711 16.509064 19.948773
9.466161 16.515728 20.034854
9.379595 16.522394 20.120950
9.293014 16.529061 20.207062
9.206416 16.535728 20.293191
9.119803 16.542398 20.379335
9.033174 16.549068 20.465495
8.946528 16.555740 20.551670
9.177998 16.414462 20.121555
8.917684 16.434472 20.380403
19.640963 17.168215 12.099683
19.557947 17.174734 12.182896
19.474916 17.181254 12.266124
19.391872 17.187775 12.349365
19.308813 17.194298 12.432621
19.225740 17.200821 12.515890
18.893306 17.226927 12.849112
18.810162 17.233456 12.932453
18.727004 17.239986 13.015809
18.796839 17.116672 12.753266
18.713548 17.123203 12.836738
18.630243 17.129734 12.920223
18.546924 17.136267 13.003723
18.463591 17.142801 13.087238
18.380244 17.149336 13.170766
18.296882 17.155872 13.254309
18.213506 17.162410 13.337867
18.130115 17.168948 13.421438
17.697855 17.084508 13.661274
17.614245 17.091053 13.745049
17.530621 17.097600 13.828838
17.446983 17.104147 13.912641
17.363331 17.110696 13.996459
17.279664 17.117246 14.080291
17.195982 17.123797 14.164138
17.112286 17.130349 14.247999
17.028576 17.136903 14.331874
16.944852 17.143457 14.415764
16.861113 17.150012 14.499668
19.104146 16.855884 12.058518
19.020647 16.862410 12.142165
18.937134 16.868938 12.225826
18.853607 16.875467 12.309502
18.770065 16.881997 12.393192
16.676843 17.045610 14.490128
16.592927 17.052169 14.574194
16.508996 17.058730 14.658273
16.425051 17.065291 14.742368
16.341091 17.071854 14.826476
16.257117 17.078417 14.910600
16.173128 17.084982 14.994737
16.089125 17.091548 15.078889
16.005108 17.098115 15.163056
15.921076 17.104684 15.247237
15.837029 17.111253 15.331433
15.668892 17.124395 15.499868
15.584802 17.130968 15.584107
15.500698 17.137542 15.668361
17.919069 16.829464 13.051164
17.835235 16.836007 13.135130
17.751387 16.842550 13.219111
17.667524 16.849095 13.303105
17.583647 16.855641 13.387115
17.499755 16.862188 13.471139
15.650472 17.006508 15.323334
15.566247 17.013081 15.407692
15.482007 17.019656 15.492064
15.397752 17.026231 15.576451
15.313484 17.032807 15.660853
15.229200 17.039385 15.745269
15.144902 17.045964 15.829700
15.060589 17.052544 15.914145
14.976262 17.059125 15.998605
14.891921 17.065707 16.083079
14.807564 17.072290 16.167568
14.638808 17.085460 16.336591
14.554408 17.092047 16.421124
14.469993 17.098634 16.505671
16.643187 16.809456 14.133654
16.559000 16.816015 14.217956
16.474800 16.822576 14.302272
16.390585 16.829138 14.386603
16.306355 16.835701 14.470948
16.222111 16.842265 14.555309
14.449611 16.980376 16.330244
14.365045 16.986965 16.414926
14.280465 16.993555 16.499622
14.195870 17.000147 16.584333
14.111261 17.006740 16.669059
14.026637 17.013333 16.753799
13.941998 17.019928 16.838554
13.857344 17.026524 16.923324
13.772676 17.033122 17.008109
13.687993 17.039720 17.092908
13.603296 17.046319 17.177722
13.518584 17.052920 17.262550
13.433857 17.059522 17.347394
13.349115 17.066125 17.432252
13.264359 17.072729 17.517124
13.179588 17.079334 17.602012
13.094803 17.085940 17.686914
13.010002 17.092548 17.771831
12.925187 17.099157 17.856762
16.710585 16.684256 13.870160
15.866858 16.749894 14.714876
15.782405 16.756464 14.799428
15.613455 16.769607 14.968577
15.528958 16.776181 15.053173
15.444446 16.782756 15.137783
13.326887 16.947492 17.257827
13.241993 16.954096 17.342820
13.157085 16.960702 17.427828
13.072162 16.967308 17.512850
12.987224 16.973916 17.597888
12.902271 16.980525 17.682940
12.817304 16.987135 17.768007
12.732322 16.993746 17.853089
12.647325 17.000359 17.938185
12.562313 17.006972 18.023297
12.222119 17.033438 18.363890
12.137034 17.040057 18.449075
12.051933 17.046677 18.534275
11.966818 17.053299 18.619490
11.881688 17.059922 18.704720
11.796544 17.066546 18.789965
11.711384 17.073171 18.875224
11.626210 17.079797 18.960499
11.541021 17.086424 19.045788
14.323811 16.749314 16.062629
14.238957 16.755905 16.147566
14.154088 16.762497 16.232517
14.069204 16.769090 16.317483
13.984306 16.775684 16.402464
13.899393 16.782280 16.487460
13.814465 16.788876 16.572470
12.198024 16.914428 18.190481
12.112800 16.921048 18.275787
12.027562 16.927668 18.361109
11.942308 16.934290 18.446445
11.857039 16.940913 18.531797
11.771756 16.947537 18.617163
11.686458 16.954163 18.702544
11.601145 16.960789 18.787940
11.515817 16.967417 18.873351
11.430474 16.974045 18.958776
11.345117 16.980675 19.044217
11.259744 16.987306 19.129672
11.174357 16.993938 19.215142
11.003537 17.007206 19.386128
10.918105 17.013842 19.471643
10.832658 17.020479 19.557173
14.133096 16.643101 16.055764
14.048075 16.649694 16.140851
13.707841 16.676079 16.481346
13.622746 16.682678 16.566507
13.367370 16.702482 16.822079
13.282216 16.709085 16.907299
13.197046 16.715690 16.992534
13.111861 16.722296 17.077784
12.941448 16.735511 17.248329
12.856219 16.742121 17.333623
10.977416 16.887818 19.213870
10.891845 16.894454 19.299508
10.806258 16.901091 19.385160
10.720657 16.907729 19.470827
10.635040 16.914369 19.556510
10.549409 16.921009 19.642207
10.463763 16.927651 19.727919
10.378101 16.934294 19.813646
10.292425 16.940938 19.899388
10.206734 16.947583 19.985145
10.121027 16.954229 20.070918
10.035306 16.960877 20.156705
9.949570 16.967525 20.242507
9.863819 16.974175 20.328324
9.778053 16.980826 20.414156
9.606475 16.994132 20.585865
12.064100 16.681881 17.927540
11.978583 16.688502 18.013106
11.893051 16.695125 18.098686
11.807504 16.701748 18.184281
11.721942 16.708373 18.269892
9.749883 16.861057 20.243066
9.663962 16.867709 20.329036
9.578025 16.874363 20.415022
9.492073 16.881017 20.501022
9.406106 16.887673 20.587038
9.320124 16.894330 20.673069
9.234127 16.900989 20.759115
9.148114 16.907648 20.845175
11.096581 16.634618 18.695968
11.010759 16.641252 18.781821
10.924922 16.647887 18.867689
10.839070 16.654523 18.953572
10.667321 16.667799 19.125384
10.581424 16.674439 19.211312
10.495512 16.681080 19.297255
9.032696 16.794154 20.760600
10.124068 16.587110 19.468363
10.037939 16.593757 19.554505
9.779461 16.613705 19.813024
9.693272 16.620356 19.899227
9.607067 16.627009 19.985445
9.520848 16.633663 20.071678
9.434613 16.640318 20.157927
9.837476 16.486119 19.553832
8.973630 16.552677 20.417638
8.887161 16.559340 20.504102
8.800678 16.566003 20.590582
1.127177 12.824782 21.184201
1.034456 12.831521 21.276254
0.803350 12.709481 21.278833
1.177726 12.403359 20.451385
0.804900 12.430296 20.821271
0.758977 12.293364 20.637653
1.087051 12.129029 20.082365
0.712894 12.155956 20.453398
0.760385 12.011337 20.175571
1.089574 11.846059 19.617768
0.714148 11.872970 19.989884
0.667750 11.734120 19.803547
0.715410 11.588057 19.523213
0.668856 11.448233 19.335422
0.622139 11.307918 19.146972
1.048643 11.133518 18.489205
1.002452 10.992222 18.298690
0.956098 10.850426 18.107502
0.576854 10.585457 18.006003
0.529485 10.442143 17.813222
0.577661 10.291612 17.525136
0.481947 10.298319 17.619755
0.289527 8.811394 15.358203
0.289336 8.504962 14.857641
0.191535 8.511637 14.954031
0.338220 8.347598 14.557770
0.240255 8.354269 14.654296
19.327887 16.838388 11.777676
19.242503 16.845061 11.859207
19.157098 16.851736 11.940758
19.071673 16.858413 12.022329
18.986227 16.865091 12.103920
18.900759 16.871771 12.185531
18.815272 16.878453 12.267162
18.729763 16.885136 12.348812
18.644233 16.891820 12.430482
18.558683 16.898507 12.512172
18.216274 16.925269 12.839132
18.130620 16.931963 12.920921
18.044944 16.938659 13.002731
17.959248 16.945357 13.084560
17.873531 16.952057 13.166410
19.405208 16.713435 11.519169
19.319716 16.720103 11.600781
18.806325 16.760141 12.090873
18.720686 16.766820 12.172624
18.635027 16.773500 12.254396
18.549348 16.780182 12.336187
18.463647 16.786866 12.417999
18.377925 16.793551 12.499830
18.292183 16.800238 12.581681
18.206419 16.806927 12.663552
18.120635 16.813617 12.745443
18.034830 16.820309 12.827354
17.949003 16.827002 12.909285
17.863156 16.833697 12.991237
17.777288 16.840394 13.073208
17.691399 16.847092 13.155199
17.605489 16.853792 13.237210
17.519559 16.860494 13.319241
17.433607 16.867197 13.401292
17.347634 16.873902 13.483363
17.261640 16.880608 13.565454
17.175625 16.887316 13.647565
17.508630 16.741760 13.143948
17.422547 16.748459 13.226101
17.336443 16.755159 13.308275
17.250319 16.761861 13.390468
17.164173 16.768565 13.472681
17.078006 16.775270 13.554915
16.991818 16.781977 13.637169
16.905609 16.788686 13.719443
16.819379 16.795396 13.801736
16.733128 16.802108 13.884050
16.646855 16.808822 13.966385
16.560562 16.815537 14.048739
16.474248 16.822254 14.131113
16.387912 16.828973 14.213508
16.301555 16.835693 14.295923
16.215177 16.842414 14.378358
16.128778 16.849138 14.460813
16.042358 16.855863 14.543288
15.955917 16.862590 14.625784
15.869454 16.869318 14.708300
15.782970 16.876048 14.790836
19.217527 16.489124 11.327229
19.131733 16.495786 11.409084
19.045919 16.502449 11.490959
18.960084 16.509114 11.572853
18.874227 16.515781 11.654768
18.788350 16.522449 11.736702
18.702451 16.529119 11.818657
18.616532 16.535790 11.900631
18.530592 16.542463 11.982626
16.461707 16.703109 13.956525
16.375239 16.709823 14.039023
16.288750 16.716538 14.121541
16.202240 16.723256 14.204079
16.115709 16.729975 14.286638
16.029156 16.736695 14.369216
15.942583 16.743418 14.451815
15.855988 16.750142 14.534434
15.769372 16.756867 14.617074
15.682734 16.763594 14.699733
15.596076 16.770323 14.782413
15.509396 16.777054 14.865114
15.422695 16.783786 14.947834
15.335972 16.790520 15.030575
15.249228 16.797255 15.113336
15.162463 16.803993 15.196118
15.075677 16.810731 15.278920
14.988869 16.817472 15.361742
14.902040 16.824214 15.444584
14.815190 16.830958 15.527447
14.728318 16.837703 15.610331
14.641425 16.844450 15.693234
14.554511 16.851199 15.776158
19.123227 16.376420 11.230791
17.659301 16.489841 12.627118
17.572997 16.496528 12.709436
17.486673 16.503216 12.791774
17.400327 16.509906 12.874132
17.313961 16.516598 12.956511
17.227573 16.523291 13.038910
15.321667 16.670956 14.856807
15.234790 16.677687 14.939672
15.147891 16.684419 15.022558
15.060972 16.691154 15.105464
14.974031 16.697890 15.188390
14.887068 16.704627 15.271337
14.800084 16.711366 15.354304
14.713079 16.718107 15.437292
14.626052 16.724850 15.520300
14.539004 16.731594 15.603328
14.451935 16.738340 15.686377
14.364844 16.745088 15.769447
14.277731 16.751837 15.852537
17.821343 16.356678 12.285245
17.734950 16.363357 12.367625
17.648536 16.370037 12.450026
17.562101 16.376719 12.532446
16.869855 16.430234 13.192542
16.783229 16.436931 13.275145
16.696581 16.443629 13.357769
16.609912 16.450329 13.440413
16.523222 16.457031 13.523077
16.436511 16.463734 13.605761
16.349778 16.470439 13.688466
16.263024 16.477146 13.771191
16.176248 16.483854 13.853936
14.087216 16.645350 15.845948
13.999905 16.652099 15.929204
13.912572 16.658851 16.012481
13.825218 16.665604 16.095778
13.737842 16.672359 16.179096
13.650444 16.679115 16.262435
13.563025 16.685873 16.345794
13.475584 16.692633 16.429174
13.388122 16.699394 16.512574
13.300638 16.706157 16.595995
13.213133 16.712922 16.679436
13.125606 16.719688 16.762898
13.038057 16.726456 16.846381
12.950487 16.733226 16.929884
12.862895 16.739997 17.013408
12.775281 16.746770 17.096953
12.687646 16.753545 17.180518
12.599989 16.760322 17.264104
12.512310 16.767100 17.347710
15.989311 16.377021 13.843827
15.902338 16.383729 13.926738
15.815343 16.390440 14.009669
15.554231 16.410580 14.258585
15.467151 16.417297 14.341598
15.380049 16.424016 14.424631
15.292926 16.430736 14.507685
15.205781 16.437458 14.590759
12.932451 16.612810 16.757902
12.844723 16.619577 16.841532
12.756974 16.626345 16.925183
12.669203 16.633116 17.008855
12.581410 16.639888 17.092547
12.493595 16.646661 17.176260
12.405759 16.653436 17.259993
12.317900 16.660213 17.343748
12.230020 16.666992 17.427523
12.142119 16.673772 17.511319
12.054195 16.680554 17.595135
11.966250 16.687338 17.678973
11.878283 16.694123 17.762831
11.790294 16.700910 17.846710
11.702284 16.707698 17.930609
11.614251 16.714489 18.014530
11.438121 16.728075 18.182433
14.841878 16.343680 14.748427
14.754491 16.350406 14.831709
14.667082 16.357133 14.915012
14.579652 16.363862 14.998335
14.492200 16.370592 15.081678
14.404726 16.377324 15.165043
14.317231 16.384058 15.248427
14.229714 16.390794 15.331833
14.142176 16.397531 15.415259
14.054616 16.404270 15.498706
13.967034 16.411010 15.582173
11.946657 16.566503 17.507639
11.770427 16.580066 17.675590
11.682279 16.586850 17.759597
11.594109 16.593636 17.843625
11.505918 16.600423 17.927673
11.417704 16.607212 18.011743
11.329469 16.614003 18.095833
11.241212 16.620796 18.179944
11.152932 16.627590 18.264076
11.064631 16.634386 18.348229
10.976308 16.641183 18.432403
10.887963 16.647982 18.516598
10.799596 16.654783 18.600814
10.711207 16.661586 18.685050
10.622797 16.668390 18.769308
10.534364 16.675196 18.853586
10.445909 16.682004 18.937886
10.180412 16.702437 19.190910
13.862784 16.296651 15.491457
13.775023 16.303390 15.575071
13.687240 16.310130 15.658707
13.599436 16.316873 15.742363
13.511609 16.323617 15.826040
13.423761 16.330363 15.909738
13.335891 16.337110 15.993456
13.247999 16.343860 16.077195
13.160086 16.350610 16.160955
13.072151 16.357363 16.244736
12.984194 16.364117 16.328538
12.896215 16.370873 16.412360
10.512503 16.553917 18.683452
10.423910 16.560720 18.767859
10.335294 16.567525 18.852288
10.246657 16.574331 18.936738
10.157997 16.581139 19.021209
10.069315 16.587949 19.105701
9.980612 16.594760 19.190214
9.891886 16.601574 19.274748
9.803138 16.608388 19.359303
9.714368 16.615205 19.443879
9.625576 16.622023 19.528476
9.536761 16.628843 19.613094
9.447925 16.635665 19.697734
9.359066 16.642489 19.782394
9.270185 16.649314 19.867076
9.181282 16.656140 19.951778
9.092357 16.662969 20.036502
9.003410 16.669799 20.121247
8.914440 16.676631 20.206013
12.701715 16.262855 16.406716
12.613533 16.269612 16.490707
12.525330 16.276369 16.574720
12.437104 16.283129 16.658754
12.348857 16.289890 16.742808
12.260587 16.296653 16.826884
12.172296 16.303417 16.910980
12.083982 16.310184 16.995097
11.995647 16.316952 17.079235
11.907290 16.323721 17.163394
11.818910 16.330492 17.247574
11.730509 16.337265 17.331775
11.642085 16.344040 17.415997
10.046692 16.466273 18.935586
9.868984 16.479888 19.104851
9.691187 16.493510 19.274200
9.602255 16.500324 19.358906
9.513301 16.507139 19.443633
9.424325 16.513956 19.528382
9.335326 16.520775 19.613152
9.246305 16.527595 19.697943
9.157262 16.534418 19.782755
9.068197 16.541241 19.867588
8.979110 16.548067 19.952442
8.890000 16.554894 20.037318
8.800868 16.561723 20.122215
8.711714 16.568554 20.207133
8.622537 16.575386 20.292072
11.887515 16.201771 16.990478
11.798997 16.208537 17.074766
11.710458 16.215305 17.159075
11.533312 16.228847 17.327756
11.444706 16.235620 17.412128
11.356078 16.242395 17.496521
11.267428 16.249172 17.580935
11.178755 16.255950 17.665370
11.090061 16.262730 17.749827
11.001344 16.269512 17.834304
10.912606 16.276295 17.918802
10.823845 16.283080 18.003322
10.735062 16.289867 18.087862
10.646257 16.296655 18.172424
10.557429 16.303445 18.257007
10.468580 16.310237 18.341611
8.508260 16.460089 20.208257
8.418898 16.466920 20.293349
11.068975 16.140360 17.577353
10.891240 16.153916 17.746546
10.802340 16.160696 17.831175
10.713418 16.167478 17.915824
10.624473 16.174261 18.000495
10.535506 16.181047 18.085186
10.446516 16.187834 18.169899
10.357505 16.194623 18.254633
10.268471 16.201413 18.339389
10.179415 16.208205 18.424165
10.090336 16.214999 18.508963
10.001236 16.221794 18.593782
9.912113 16.228592 18.678622
9.822967 16.235391 18.763483
9.733800 16.242191 18.848366
9.644610 16.248994 18.933270
9.555397 16.255798 19.018195
9.466163 16.262603 19.103142
9.376906 16.269411 19.188109
8.483104 16.337579 20.038959
8.304075 16.351233 20.209385
9.174223 16.160181 19.187403
9.084757 16.166989 19.272545
8.995269 16.173798 19.357708
8.905759 16.180609 19.442892
8.816226 16.187422 19.528098
8.726671 16.194236 19.613325
8.637093 16.201053 19.698574
8.547493 16.207871 19.783844
8.457870 16.214690 19.869136
8.368225 16.221512 19.954449
8.188867 16.235160 20.125139
8.881157 16.057364 19.271989
8.791483 16.064171 19.357305
8.701785 16.070981 19.442643
8.612065 16.077792 19.528003
8.522323 16.084605 19.613384
8.432558 16.091420 19.698786
8.342771 16.098237 19.784210
8.252960 16.105055 19.869655
10.027165 4.092113 -0.266070
9.796100 3.941754 -0.306996
9.769477 3.778702 -0.538037
19.308856 16.603916 12.482194
19.225780 16.610389 12.565335
19.142690 16.616863 12.648490
19.059585 16.623338 12.731660
18.976467 16.629814 12.814845
18.893333 16.636292 12.898044
18.810186 16.642771 12.981257
18.727023 16.649250 13.064484
18.643847 16.655731 13.147726
18.560656 16.662213 13.230983
18.463795 16.551055 13.135940
18.380443 16.557539 13.219341
18.297076 16.564024 13.302756
18.213696 16.570511 13.386186
18.130300 16.576998 13.469630
18.046890 16.583487 13.553089
17.963466 16.589977 13.636563
17.713106 16.609453 13.887070
17.629624 16.615948 13.970601
17.546127 16.622443 14.054147
17.462616 16.628940 14.137707
17.379090 16.635438 14.221282
17.295549 16.641937 14.304872
17.211995 16.648437 14.388476
17.128425 16.654938 14.472094
17.044841 16.661440 14.555727
16.961243 16.667944 14.639375
19.450776 16.355320 11.955997
19.367466 16.361791 12.039340
19.284141 16.368263 12.122697
19.200802 16.374736 12.206068
17.279992 16.523924 14.127621
17.196304 16.530424 14.211341
17.112602 16.536925 14.295076
17.028884 16.543427 14.378826
16.945153 16.549931 14.462590
19.522054 16.230468 11.691724
19.438625 16.236937 11.775168
18.436354 16.314658 12.777625
18.352737 16.321142 12.861258
18.269105 16.327627 12.944905
16.341544 16.477100 14.872824
16.257561 16.483613 14.956822
16.173564 16.490126 15.040835
16.089552 16.496641 15.124863
16.005525 16.503157 15.208905
15.921484 16.509674 15.292962
15.837428 16.516192 15.377033
15.753357 16.522711 15.461119
15.669272 16.529232 15.545220
15.585172 16.535753 15.629336
15.501057 16.542276 15.713466
15.416928 16.548800 15.797612
15.332784 16.555325 15.881771
15.248625 16.561851 15.965946
15.164451 16.568378 16.050135
15.080263 16.574906 16.134339
14.996060 16.581436 16.218558
14.911842 16.587967 16.302791
17.416597 16.273782 13.603574
17.332671 16.280280 13.687499
17.248730 16.286779 13.771438
17.164775 16.293278 13.855392
15.061109 16.456145 15.959023
14.976771 16.462674 16.043360
14.892418 16.469205 16.127711
14.808051 16.475736 16.212078
14.723668 16.482269 16.296459
14.639271 16.488803 16.380855
14.554859 16.495339 16.465265
14.470432 16.501875 16.549691
14.385990 16.508412 16.634131
14.301534 16.514951 16.718586
14.217062 16.521491 16.803056
14.132576 16.528032 16.887541
14.048075 16.534574 16.972040
16.307226 16.239202 14.518096
16.222974 16.245714 14.602330
16.138708 16.252228 14.686578
16.054426 16.258742 14.770841
15.970130 16.265258 14.855119
14.365690 16.389273 16.459208
14.281097 16.395812 16.543782
14.196490 16.402351 16.628370
14.111868 16.408892 16.712974
14.027231 16.415434 16.797592
13.942579 16.421977 16.882226
13.857912 16.428522 16.966874
13.773231 16.435067 17.051537
13.688534 16.441614 17.136215
13.603823 16.448161 17.220908
13.519097 16.454710 17.305615
13.434355 16.461260 17.390338
13.349599 16.467812 17.475075
13.264829 16.474364 17.559828
13.180043 16.480918 17.644595
15.360910 16.191382 15.268570
15.276360 16.197907 15.353085
15.191795 16.204433 15.437615
15.107215 16.210960 15.522159
15.022620 16.217488 15.606718
14.938010 16.224017 15.691292
13.242686 16.354844 17.385900
12.902905 16.381065 17.725538
12.817923 16.387623 17.810484
12.732925 16.394182 17.895446
12.647913 16.400742 17.980423
12.562885 16.407304 18.065415
12.477842 16.413867 18.150421
12.392785 16.420431 18.235443
12.307712 16.426995 18.320479
12.222625 16.433562 18.405531
12.137523 16.440129 18.490597
12.052405 16.446697 18.575679
11.967273 16.453267 18.660775
11.882125 16.459838 18.745887
11.796963 16.466410 18.831014
11.711785 16.472983 18.916155
11.626593 16.479557 19.001312
14.579402 16.130247 15.853340
14.494581 16.136781 15.938107
14.409745 16.143318 16.022890
14.324895 16.149855 16.107688
14.240029 16.156393 16.192500
14.155148 16.162933 16.277328
14.070253 16.169473 16.362170
13.985342 16.176015 16.447028
13.900417 16.182558 16.531900
13.815476 16.189102 16.616787
13.730521 16.195647 16.701690
13.645550 16.202194 16.786607
12.283985 16.307093 18.147320
12.198759 16.313659 18.232492
12.113519 16.320226 18.317679
12.028263 16.326795 18.402882
11.942992 16.333364 18.488099
11.857707 16.339935 18.573331
11.772406 16.346507 18.658579
11.687090 16.353080 18.743841
11.601759 16.359654 18.829118
11.516414 16.366229 18.914411
11.431053 16.372806 18.999718
11.345676 16.379383 19.085041
11.260285 16.385962 19.170379
11.174879 16.392542 19.255731
11.089458 16.399123 19.341099
11.004021 16.405706 19.426482
13.112991 16.121212 17.121505
13.027778 16.127766 17.206647
12.942550 16.134321 17.291805
12.857306 16.140878 17.376977
12.772048 16.147436 17.462165
12.686775 16.153995 17.547368
10.721318 16.305172 19.511192
10.635682 16.311759 19.596757
10.550031 16.318347 19.682337
10.464364 16.324936 19.767932
10.378683 16.331526 19.853543
10.292986 16.338118 19.939169
10.207274 16.344710 20.024809
10.121547 16.351304 20.110465
10.035804 16.357899 20.196137
9.950047 16.364495 20.281823
9.864274 16.371093 20.367524
9.778486 16.377691 20.453241
9.692683 16.384291 20.538973
9.606864 16.390892 20.624720
12.492719 16.046445 17.543185
12.407261 16.053008 17.628554
12.150798 16.072701 17.884751
12.065280 16.079268 17.970181
11.979747 16.085836 18.055625
11.894199 16.092406 18.141085
11.808635 16.098976 18.226560
11.723057 16.105548 18.312050
10.008297 16.237224 20.025034
9.836486 16.250418 20.196667
9.750558 16.257016 20.282506
9.664614 16.263616 20.368361
9.578655 16.270216 20.454230
9.492681 16.276818 20.540115
9.406692 16.283421 20.626016
9.320688 16.290026 20.711931
9.234668 16.296631 20.797862
10.840244 16.050266 18.994905
10.754359 16.056850 19.080684
10.668458 16.063436 19.166478
10.582541 16.070022 19.252288
10.496610 16.076610 19.338112
10.410663 16.083199 19.423952
10.899979 15.922232 18.735583
10.813968 15.928814 18.821470
10.727941 15.935398 18.907371
10.641900 15.941984 18.993289
10.555843 15.948570 19.079221
10.469771 15.955158 19.165168
10.383683 15.961746 19.251131
10.297580 15.968336 19.337110
10.211462 15.974927 19.423103
10.125329 15.981520 19.509112
10.039180 15.988113 19.595136
9.953016 15.994708 19.681175
9.866836 16.001303 19.767230
9.780641 16.007900 19.853300
9.694431 16.014498 19.939385
9.608206 16.021098 20.025486
9.521965 16.027698 20.111602
9.435709 16.034300 20.197734
8.917848 16.073934 20.714844
8.888372 15.952086 20.543567
0.451398 8.891345 16.504817
0.306771 8.749971 16.402692
0.355515 8.594833 16.109150
0.307315 8.445776 15.910249
0.647981 8.269766 15.327584
0.550750 8.276368 15.423317
0.258941 8.296183 15.710631
0.259319 7.988774 15.213134
0.210600 7.837556 15.011190
19.470432 16.590178 11.780805
19.385156 16.596814 11.862172
19.299860 16.603452 11.943559
19.214542 16.610091 12.024966
19.129204 16.616732 12.106393
19.043844 16.623374 12.187840
18.958464 16.630019 12.269306
18.873063 16.636664 12.350793
18.787641 16.643312 12.432299
18.702199 16.649961 12.513825
18.616735 16.656611 12.595371
19.462514 16.471697 11.604212
18.521913 16.544733 12.501451
18.436278 16.551382 12.583138
18.350623 16.558033 12.664845
18.264946 16.564685 12.746571
18.179248 16.571340 12.828318
18.093530 16.577995 12.910085
18.007790 16.584653 12.991872
17.922030 16.591312 13.073679
17.836248 16.597973 13.155506
17.750445 16.604635 13.237353
17.664622 16.611299 13.319221
17.578777 16.617965 13.401108
17.492911 16.624632 13.483015
17.407025 16.631301 13.564942
17.321117 16.637972 13.646890
17.235188 16.644644 13.728857
17.149238 16.651318 13.810845
17.063267 16.657993 13.892853
17.223869 16.525688 13.554366
17.137788 16.532357 13.636456
17.051687 16.539028 13.718565
16.965564 16.545701 13.800695
16.879419 16.552375 13.882845
16.793254 16.559051 13.965016
16.707068 16.565728 14.047206
15.671176 16.645986 15.035069
19.275259 16.246913 11.412792
19.189553 16.253539 11.494501
19.103827 16.260166 11.576230
19.018080 16.266794 11.657979
18.932312 16.273425 11.739748
18.846522 16.280057 11.821537
18.760712 16.286690 11.903346
18.674880 16.293325 11.985175
18.589028 16.299962 12.067024
18.503154 16.306601 12.148893
18.417259 16.313241 12.230783
18.331344 16.319883 12.312692
18.245407 16.326526 12.394622
16.263019 16.479775 14.284571
16.176573 16.486458 14.366986
16.090106 16.493142 14.449421
16.003618 16.499828 14.531876
15.917109 16.506516 14.614351
15.830578 16.513205 14.696847
15.744026 16.519896 14.779363
15.657453 16.526589 14.861900
15.570858 16.533283 14.944457
15.484242 16.539979 15.027034
15.397605 16.546676 15.109631
15.310946 16.553376 15.192249
15.224266 16.560076 15.274887
15.137564 16.566779 15.357546
15.050841 16.573483 15.440225
19.181174 16.133972 11.316615
18.235593 16.206908 12.217852
17.891111 16.233479 12.546179
17.804938 16.240126 12.628311
17.718743 16.246774 12.710464
17.632527 16.253425 12.792637
17.546290 16.260076 12.874829
17.460032 16.266730 12.957043
17.373752 16.273385 13.039276
17.287451 16.280041 13.121530
17.201129 16.286700 13.203804
17.114786 16.293360 13.286098
17.028421 16.300021 13.368412
15.209837 16.440295 15.101712
15.123003 16.446993 15.184475
15.036147 16.453692 15.267257
14.949269 16.460393 15.350061
14.862370 16.467096 15.432884
14.775450 16.473801 15.515729
14.688508 16.480507 15.598593
14.601545 16.487214 15.681478
14.514560 16.493924 15.764384
14.427554 16.500635 15.847310
14.340526 16.507348 15.930257
14.253476 16.514062 16.013224
14.166405 16.520778 16.096211
14.079313 16.527496 16.179220
13.992199 16.534215 16.262248
13.905063 16.540936 16.345298
17.535395 16.140059 12.698343
17.449005 16.146708 12.780659
17.103232 16.173319 13.110125
17.016736 16.179976 13.192542
16.930218 16.186634 13.274979
16.843678 16.193294 13.357437
16.757118 16.199956 13.439916
16.670536 16.206620 13.522414
16.583932 16.213285 13.604933
16.497307 16.219951 13.687472
16.410661 16.226620 13.770032
16.323994 16.233290 13.852612
16.237305 16.239961 13.935213
16.150594 16.246635 14.017834
16.063863 16.253310 14.100475
15.977109 16.259986 14.183137
15.890335 16.266665 14.265819
15.803539 16.273345 14.348521
14.063101 16.407290 16.006876
13.975853 16.414005 16.090009
13.888583 16.420721 16.173163
13.801291 16.427439 16.256338
13.713978 16.434159 16.339533
13.626643 16.440880 16.422749
13.539287 16.447603 16.505986
13.451909 16.454328 16.589243
13.364509 16.461055 16.672521
13.277087 16.467783 16.755819
13.189644 16.474512 16.839138
13.102179 16.481244 16.922478
12.839655 16.501448 17.172621
12.752103 16.508186 17.256044
16.224389 16.119509 13.759739
16.137546 16.126178 13.842463
16.050681 16.132848 13.925208
15.963795 16.139520 14.007974
15.876887 16.146193 14.090760
15.789957 16.152868 14.173566
15.703006 16.159545 14.256393
15.616034 16.166224 14.339240
15.529040 16.172904 14.422108
15.442024 16.179586 14.504997
15.354987 16.186269 14.587905
15.267929 16.192954 14.670835
15.180848 16.199641 14.753785
15.093747 16.206329 14.836755
15.006623 16.213019 14.919747
14.919478 16.219711 15.002758
14.832312 16.226404 15.085791
14.745124 16.233099 15.168843
12.909167 16.374078 16.917721
12.821501 16.380810 17.001228
12.733814 16.387543 17.084757
12.646105 16.394278 17.168306
12.558374 16.401015 17.251876
12.470621 16.407753 17.335466
12.382847 16.414494 17.419078
12.295050 16.421235 17.502710
12.207232 16.427979 17.586363
12.119392 16.434724 17.670037
12.031530 16.441470 17.753731
11.943646 16.448219 17.837447
11.855740 16.454969 17.921183
11.767813 16.461721 18.004940
11.679863 16.468474 18.088719
11.591892 16.475229 18.172517
11.503899 16.481986 18.256337
11.415883 16.488745 18.340178
11.327846 16.495505 18.424039
11.239787 16.502267 18.507922
11.063603 16.515795 18.675749
14.991794 16.092134 14.745198
14.904515 16.098820 14.828315
14.817214 16.105509 14.911452
14.729891 16.112199 14.994609
14.642547 16.118891 15.077787
14.555181 16.125584 15.160986
14.467793 16.132280 15.244206
14.380383 16.138976 15.327446
14.292952 16.145675 15.410707
14.205499 16.152375 15.493988
14.118025 16.159077 15.577291
14.030528 16.165780 15.660613
13.943010 16.172486 15.743957
13.855471 16.179192 15.827321
13.767909 16.185901 15.910707
13.680326 16.192611 15.994112
11.836031 16.333911 17.750437
11.747967 16.340658 17.834301
11.659881 16.347406 17.918186
11.571772 16.354157 18.002091
11.483642 16.360909 18.086018
11.395490 16.367662 18.169965
11.307316 16.374418 18.253934
11.219119 16.381175 18.337923
11.130901 16.387934 18.421934
11.042661 16.394694 18.505965
10.954399 16.401456 18.590017
10.866114 16.408220 18.674091
10.777808 16.414986 18.758185
10.689480 16.421753 18.842300
10.601129 16.428522 18.926437
10.512757 16.435293 19.010594
14.189410 16.031077 15.319854
14.101800 16.037774 15.403262
14.014168 16.044473 15.486690
13.926514 16.051173 15.570139
13.838839 16.057875 15.653609
13.751141 16.064579 15.737100
13.663422 16.071284 15.820611
13.575681 16.077991 15.904144
13.487919 16.084700 15.987697
13.400134 16.091410 16.071271
13.312327 16.098122 16.154865
13.224499 16.104836 16.238481
13.136649 16.111551 16.322117
13.048776 16.118268 16.405774
12.960882 16.124987 16.489452
12.872966 16.131707 16.573151
12.785028 16.138429 16.656871
12.697069 16.145153 16.740612
12.609087 16.151878 16.824373
12.521083 16.158605 16.908156
12.433057 16.165334 16.991959
10.490922 16.313791 18.840935
10.402389 16.320559 18.925222
10.313834 16.327328 19.009529
10.225257 16.334099 19.093857
10.136658 16.340872 19.178207
10.048036 16.347646 19.262577
9.959393 16.354422 19.346969
9.870727 16.361199 19.431382
9.782039 16.367979 19.515816
9.693329 16.374760 19.600271
9.604596 16.381543 19.684747
9.515841 16.388327 19.769244
9.427064 16.395113 19.853763
9.338265 16.401901 19.938302
9.249444 16.408691 20.022863
9.160600 16.415482 20.107445
9.071734 16.422275 20.192049
8.982846 16.429069 20.276673
13.470691 15.962992 15.813877
13.382770 15.969698 15.897557
13.294827 15.976405 15.981258
13.118875 15.989824 16.148722
13.030867 15.996536 16.232486
12.942836 16.003250 16.316270
12.854783 16.009965 16.400076
12.766708 16.016682 16.483902
12.678611 16.023401 16.567749
12.590493 16.030121 16.651617
12.502352 16.036843 16.735507
12.414189 16.043567 16.819417
12.326004 16.050293 16.903348
12.237797 16.057020 16.987300
12.149569 16.063749 17.071273
12.061318 16.070479 17.155267
11.973045 16.077212 17.239282
11.884750 16.083945 17.323318
11.796432 16.090681 17.407375
11.708093 16.097418 17.491453
9.225595 16.286748 19.854203
9.136611 16.293535 19.938894
9.047606 16.300323 20.023606
8.958578 16.307113 20.108339
8.869527 16.313904 20.193094
8.780455 16.320697 20.277870
8.691359 16.327492 20.362668
11.422500 15.995446 17.571922
11.333934 16.002185 17.656192
11.245345 16.008925 17.740483
11.156735 16.015668 17.824795
11.068102 16.022412 17.909128
10.979448 16.029158 17.993483
10.890770 16.035905 18.077858
10.802071 16.042655 18.162255
10.713350 16.049405 18.246673
10.624606 16.056158 18.331112
10.535840 16.062912 18.415572
10.447051 16.069668 18.500053
10.358241 16.076426 18.584556
10.269408 16.083185 18.669080
10.180553 16.089946 18.753625
10.091675 16.096709 18.838191
10.002775 16.103474 18.922778
8.488057 16.218730 20.364021
11.313289 15.879609 17.483880
11.135812 15.893083 17.652700
11.047041 15.899822 17.737141
10.958247 15.906562 17.821604
10.869430 15.913305 17.906087
10.780592 15.920049 17.990592
10.691731 15.926795 18.075119
10.602848 15.933543 18.159666
10.513943 15.940292 18.244235
10.336065 15.953796 18.413436
10.247092 15.960550 18.498069
10.158097 15.967306 18.582722
10.069080 15.974064 18.667397
9.980040 15.980823 18.752094
9.890978 15.987584 18.836811
9.801894 15.994347 18.921550
9.712787 16.001112 19.006311
9.623658 16.007878 19.091092
9.534506 16.014646 19.175895
9.445332 16.021416 19.260719
9.356136 16.028187 19.345565
9.266917 16.034960 19.430432
9.177675 16.041735 19.515320
9.088411 16.048511 19.600230
8.999125 16.055290 19.685161
8.909816 16.062070 19.770113
8.820485 16.068851 19.855087
8.373490 16.102785 20.280278
9.421684 15.898356 19.090164
9.332347 15.905123 19.175119
9.242987 15.911891 19.260096
9.153604 15.918661 19.345094
9.064200 15.925432 19.430113
8.974772 15.932205 19.515154
8.885322 15.938980 19.600216
8.795850 15.945757 19.685300
8.706354 15.952535 19.770405
8.616837 15.959315 19.855532
8.527297 15.966097 19.940680
8.437734 15.972880 20.025850
8.348148 15.979665 20.111041
8.258540 15.986452 20.196253
19.875329 16.443980 12.598407
19.793951 16.450318 12.682268
19.712562 16.456658 12.766140
19.631162 16.462997 12.850022
19.549752 16.469338 12.933916
19.864006 16.326844 12.420336
19.782500 16.333184 12.504316
19.700983 16.339526 12.588307
19.619456 16.345868 12.672309
19.456369 16.358555 12.840346
19.048468 16.390287 13.260628
18.966856 16.396636 13.344718
19.934271 16.202999 12.157619
19.199276 16.260107 12.914813
19.117557 16.266457 12.999000
19.035827 16.272807 13.083198
18.954087 16.279158 13.167407
18.872336 16.285510 13.251628
18.790574 16.291863 13.335859
18.708802 16.298216 13.420101
18.627019 16.304571 13.504354
18.545225 16.310926 13.588618
18.463421 16.317282 13.672893
18.381606 16.323639 13.757179
18.299780 16.329997 13.841476
18.217944 16.336355 13.925784
18.136097 16.342715 14.010103
18.054239 16.349075 14.094433
17.972371 16.355436 14.178773
17.890492 16.361798 14.263125
18.285939 16.212170 13.664574
18.121998 16.224892 13.833441
17.958014 16.237618 14.002354
17.876006 16.243982 14.086826
17.793987 16.250347 14.171310
17.711957 16.256713 14.255804
17.629917 16.263080 14.340310
17.547866 16.269447 14.424826
17.465804 16.275815 14.509354
17.383732 16.282185 14.593893
17.301649 16.288555 14.678442
17.219555 16.294925 14.763003
17.137451 16.301297 14.847575
17.055335 16.307670 14.932158
16.973209 16.314043 15.016752
19.666029 15.985927 12.051465
19.584116 15.992276 12.135827
19.420258 16.004976 12.304583
19.338314 16.011328 12.388978
19.256358 16.017680 12.473384
19.174391 16.024033 12.557801
19.092414 16.030387 12.642229
19.010427 16.036742 12.726668
18.928428 16.043098 12.811119
17.203984 16.176758 14.587120
17.121750 16.183132 14.671813
17.039505 16.189507 14.756517
16.957249 16.195882 14.841232
16.874982 16.202259 14.925959
16.792705 16.208636 15.010696
16.710416 16.215014 15.095445
16.628117 16.221393 15.180204
16.545808 16.227773 15.264975
16.463487 16.234153 15.349757
16.381156 16.240535 15.434549
16.298814 16.246917 15.519353
16.216461 16.253300 15.604168
16.134097 16.259684 15.688995
16.051723 16.266069 15.773832
19.654305 15.867320 11.871394
19.572263 15.873672 11.955876
18.422544 15.962676 13.139793
18.340341 15.969040 13.224441
18.258127 15.975404 13.309101
18.175902 15.981770 13.393771
18.093667 15.988136 13.478453
16.034275 16.147562 15.599101
15.951759 16.153950 15.684072
15.869232 16.160338 15.769054
15.786694 16.166728 15.854046
15.704146 16.173118 15.939050
15.621587 16.179510 16.024065
15.539016 16.185902 16.109091
15.456436 16.192295 16.194129
15.373844 16.198688 16.279177
15.291241 16.205083 16.364237
15.208628 16.211478 16.449307
15.126003 16.217875 16.534389
15.043368 16.224272 16.619482
14.960722 16.230670 16.704587
14.878066 16.237069 16.789702
14.795398 16.243468 16.874829
14.712720 16.249869 16.959966
14.630030 16.256270 17.045115
17.337655 15.926552 14.063851
17.255181 15.932929 14.148765
17.172696 15.939306 14.233691
17.007694 15.952064 14.403575
16.925176 15.958444 14.488535
16.842648 15.964825 14.573505
15.189811 16.092620 16.275252
15.107055 16.099019 16.360457
15.024288 16.105418 16.445673
14.941510 16.111818 16.530900
14.858722 16.118219 16.616139
14.775923 16.124621 16.701388
14.693112 16.131024 16.786649
14.610291 16.137428 16.871921
14.527459 16.143832 16.957204
14.444616 16.150238 17.042498
14.361762 16.156644 17.127804
14.278898 16.163051 17.213121
14.196022 16.169458 17.298448
14.113136 16.175867 17.383788
14.030238 16.182277 17.469138
13.947330 16.188687 17.554500
17.487376 15.794504 13.716015
16.826405 15.845546 14.396443
16.743735 15.851930 14.481547
16.661054 15.858315 14.566662
16.578362 15.864701 14.651788
16.495659 15.871087 14.736926
16.247485 15.890252 14.992405
16.164739 15.896642 15.077587
16.081982 15.903033 15.162781
15.999214 15.909424 15.247985
15.916435 15.915817 15.333201
15.833645 15.922210 15.418428
13.760355 16.082315 17.552750
13.677282 16.088730 17.638269
13.594197 16.095146 17.723799
13.511102 16.101563 17.809341
13.427995 16.107981 17.894894
13.344878 16.114399 17.980458
13.261750 16.120819 18.066033
13.178610 16.127239 18.151620
13.095460 16.133660 18.237218
13.012299 16.140082 18.322827
12.929127 16.146505 18.408448
12.845944 16.152929 18.494079
12.762750 16.159353 18.579723
12.679545 16.165778 18.665377
12.096802 16.210779 19.265274
16.395991 15.757830 14.645068
16.313135 15.764220 14.730351
16.230267 15.770612 14.815645
16.147389 15.777004 14.900950
16.064500 15.783397 14.986266
15.981600 15.789791 15.071594
15.898689 15.796185 15.156933
15.815767 15.802581 15.242283
15.732834 15.808977 15.327645
15.649890 15.815374 15.413017
15.566935 15.821772 15.498401
15.483970 15.828171 15.583796
15.400993 15.834571 15.669203
15.318006 15.840971 15.754620
15.235007 15.847373 15.840049
15.151998 15.853775 15.925490
15.068977 15.860178 16.010941
14.985946 15.866582 16.096404
14.902904 15.872987 16.181878
14.819851 15.879392 16.267363
12.823286 16.033381 18.322393
12.739958 16.039808 18.408161
12.656620 16.046235 18.493940
12.573270 16.052664 18.579730
12.489910 16.059093 18.665531
12.406538 16.065523 18.751344
12.323156 16.071954 18.837168
12.239762 16.078386 18.923004
12.156358 16.084819 19.008851
12.072942 16.091253 19.094709
11.989516 16.097687 19.180579
11.906078 16.104122 19.266459
11.822630 16.110558 19.352352
11.739170 16.116995 19.438255
11.655699 16.123433 19.524170
11.572218 16.129872 19.610096
11.488725 16.136311 19.696034
11.071096 16.168522 20.125893
14.300975 15.797876 16.606038
14.217712 15.804290 16.691726
14.134438 15.810704 16.777426
14.051153 15.817120 16.863137
13.967857 15.823536 16.948859
13.884550 15.829953 17.034593
13.801232 15.836371 17.120338
13.717903 15.842790 17.206094
11.798291 15.990658 19.181620
11.714697 15.997098 19.267649
11.631092 16.003538 19.353689
11.547476 16.009979 19.439741
11.463849 16.016421 19.525804
11.380211 16.022863 19.611878
11.296562 16.029307 19.697964
11.212901 16.035751 19.784061
11.129230 16.042196 19.870170
11.045547 16.048642 19.956290
10.961854 16.055089 20.042421
10.878149 16.061537 20.128564
10.794434 16.067986 20.214718
10.710707 16.074435 20.300884
10.626969 16.080886 20.387061
10.543220 16.087337 20.473249
13.863490 15.709615 16.860189
13.780038 15.716035 16.946059
13.696575 15.722456 17.031940
13.613101 15.728878 17.117832
13.529616 15.735301 17.203736
13.446120 15.741725 17.289651
13.362613 15.748149 17.375578
13.279095 15.754575 17.461516
13.195566 15.761001 17.547465
13.112025 15.767428 17.633425
13.028474 15.773856 17.719398
12.944911 15.780285 17.805381
12.861338 15.786714 17.891376
12.777753 15.793145 17.977382
12.694158 15.799576 18.063400
10.684537 15.954184 20.131245
10.600664 15.960636 20.217548
10.516780 15.967090 20.303862
10.432884 15.973544 20.390188
10.348978 15.979999 20.476526
10.265060 15.986455 20.562875
10.181132 15.992912 20.649235
10.097192 15.999370 20.735607
10.013241 16.005829 20.821990
9.929279 16.012288 20.908385
9.845305 16.018749 20.994791
9.761321 16.025210 21.081209
12.336116 15.704629 18.234882
12.252330 15.711067 18.321082
12.168533 15.717505 18.407294
12.084725 15.723945 18.493517
12.000906 15.730385 18.579752
11.917075 15.736826 18.665998
11.833234 15.743269 18.752255
11.749381 15.749711 18.838524
9.817694 15.898136 20.825876
9.733574 15.904599 20.912421
9.649442 15.911064 20.998977
9.565299 15.917529 21.085544
9.368598 15.809475 21.089895
9.930960 15.642817 20.312860
9.846589 15.649284 20.399636
9.762206 15.655751 20.486423
9.677813 15.662219 20.573222
9.593408 15.668688 20.660033
9.255676 15.694572 21.007392
1.139360 9.259847 18.009783
1.046154 9.266474 18.104816
1.001580 8.823726 17.433356
0.907869 8.830356 17.528850
0.955328 8.677323 17.239853
1.002948 8.523769 16.949874
0.908912 8.530401 17.045664
0.956537 8.376325 16.754840
0.862331 8.382957 16.850786
1.287332 8.201833 16.174844
1.193010 8.208462 16.270890
0.909962 8.228355 16.559111
1.241276 8.053333 15.977792
1.146783 8.059963 16.073994
0.957755 8.073225 16.266440
0.863220 8.079858 16.362685
0.816312 7.930831 16.165558
0.864116 7.774636 15.871166
1.197118 7.598009 15.285739
1.102120 7.604640 15.382399
0.817044 7.624539 15.672466
0.865018 7.467269 15.376191
0.769804 7.473903 15.473053
19.909710 15.972027 12.501505
19.828320 15.978336 12.585386
19.746920 15.984646 12.669278
19.665509 15.990956 12.753181
19.584087 15.997268 12.837094
19.502655 16.003580 12.921019
19.421213 16.009893 13.004954
19.980075 15.847809 12.239398
19.409305 15.891997 12.827551
19.327724 15.898313 12.911617
19.246133 15.904630 12.995693
19.164531 15.910948 13.079781
19.082918 15.917266 13.163879
19.001295 15.923586 13.247988
18.919661 15.929906 13.332108
18.838017 15.936226 13.416239
18.756362 15.942548 13.500381
18.674697 15.948871 13.584534
18.020990 15.999481 14.258150
17.939229 16.005810 14.342402
17.857458 16.012141 14.426664
17.775676 16.018473 14.510937
19.887392 15.735842 12.144713
18.743392 15.824302 13.323383
18.661598 15.830627 13.407656
18.579793 15.836952 13.491939
18.497978 15.843279 13.576234
18.416152 15.849606 13.660540
18.334316 15.855934 13.744856
18.252469 15.862263 13.829184
18.170611 15.868592 13.913522
18.088743 15.874923 13.997872
18.006864 15.881254 14.082232
17.924974 15.887586 14.166604
17.843074 15.893919 14.250986
17.761163 15.900253 14.335379
17.679241 15.906588 14.419784
17.597309 15.912923 14.504199
17.515366 15.919259 14.588625
17.433412 15.925596 14.673063
17.351448 15.931934 14.757511
19.794406 15.623512 12.049721
19.712622 15.629828 12.133971
19.630827 15.636145 12.218232
19.549022 15.642463 12.302505
19.467206 15.648781 12.386788
17.500420 15.800676 14.412881
17.418337 15.807016 14.497439
17.336243 15.813356 14.582008
17.254139 15.819697 14.666588
17.172024 15.826038 14.751179
17.089898 15.832381 14.835781
17.007762 15.838724 14.920394
16.925615 15.845068 15.005018
16.843457 15.851414 15.089654
16.761288 15.857759 15.174300
16.679109 15.864106 15.258957
16.596919 15.870454 15.343625
16.514719 15.876802 15.428305
16.432507 15.883151 15.512995
16.350285 15.889501 15.597697
16.268052 15.895852 15.682409
16.185809 15.902204 15.767133
16.103554 15.908556 15.851867
16.021289 15.914910 15.936613
19.373359 15.536096 12.292010
19.209416 15.548742 12.460872
19.127428 15.555066 12.545320
19.045430 15.561391 12.629778
18.963421 15.567717 12.714248
18.881401 15.574043 12.798728
18.799371 15.580371 12.883220
18.717329 15.586699 12.967723
18.635278 15.593028 13.052236
18.553215 15.599358 13.136761
17.567629 15.675381 14.151916
17.485427 15.681721 14.236585
17.403214 15.688063 14.321264
17.320991 15.694405 14.405954
17.238757 15.700748 14.490655
17.156512 15.707092 14.575367
17.074257 15.713437 14.660091
16.991991 15.719782 14.744825
16.909714 15.726129 14.829571
16.827426 15.732476 14.914327
16.745127 15.738824 14.999095
16.662818 15.745173 15.083873
16.580498 15.751523 15.168663
16.498167 15.757873 15.253464
16.415826 15.764225 15.338276
16.333474 15.770577 15.423099
16.251111 15.776930 15.507933
16.168737 15.783284 15.592778
16.086352 15.789638 15.677634
16.003957 15.795994 15.762501
15.921551 15.802350 15.847380
15.839134 15.808708 15.932269
15.756707 15.815066 16.017170
15.674268 15.821424 16.102082
15.591819 15.827784 16.187004
15.509359 15.834145 16.271938
